# .PCD v0.7 - Point Cloud Data file format
VERSION 0.7
FIELDS x y z
SIZE 4 4 4
TYPE F F F
COUNT 1 1 1
WIDTH 1476
HEIGHT 1
VIEWPOINT 0 0 0 1 0 0 0
POINTS 1476
DATA ascii
-35.400539 -3.912394 1.445421
-35.433704 -3.8688972 1.4470665
-35.523689 -3.7400067 1.4355843
-35.586708 -3.6676085 1.4537748
-35.6278 -3.5994694 1.4349033
-35.670353 -3.5308034 1.4181418
-35.756557 -3.4101322 1.4112561
-35.792599 -3.3651378 1.4163944
-35.935123 -3.1601703 1.3969926
-35.978226 -3.0998347 1.3935499
-36.040878 -3.0172491 1.3960619
-36.106796 -2.9446819 1.4197226
-36.154121 -2.86043 1.3895214
-36.209541 -2.7828565 1.3850944
-36.273003 -2.6997142 1.3883768
-36.321709 -2.6224282 1.3711244
-36.384781 -2.5334544 1.3650843
-36.429462 -2.4715891 1.362517
-36.957256 -1.7293537 1.3153476
-37.973282 -0.31922111 1.2520069
-38.024288 -0.25811511 1.2630439
-38.077148 -0.18728955 1.2634748
-38.139004 -0.10787085 1.2690572
-38.210701 -0.004532685 1.2589576
-38.254902 0.069574431 1.2374653
-38.309727 0.13978676 1.2426863
-38.369209 0.23139082 1.2256917
-38.417114 0.30510822 1.2121003
-38.465828 0.38239381 1.1948471
-38.50893 0.44272959 1.1914042
-38.038109 -0.27094492 1.3091867
-38.094688 -0.19401662 1.3080078
-38.167416 -0.08993797 1.298858
-38.284405 0.073829971 1.2895131
-38.313862 0.11164824 1.2921711
-32.095821 -2.9831257 -6.2483239
-30.401949 -5.5809884 -5.7801189
-30.45837 -5.5638413 -5.6938338
-30.476963 -5.5378127 -5.6953192
-30.46892 -5.5884242 -5.636899
-30.498051 -5.5495181 -5.6364751
-30.497265 -5.6002412 -5.5635548
-30.55521 -5.5435519 -5.5323148
-31.051985 -4.8634229 -5.5495777
-31.064381 -4.8460703 -5.5505676
-30.566484 -5.611742 -5.4099174
-30.57564 -5.5639501 -5.4620061
-31.066042 -4.8712268 -5.5103483
-31.096312 -4.8425927 -5.49259
-30.569876 -5.6444688 -5.3551631
-30.585911 -5.5982914 -5.391293
-30.932877 -5.144659 -5.3719306
-30.979635 -5.0827093 -5.3705235
-31.030207 -5.0258198 -5.3541489
-30.591227 -5.6787915 -5.2625918
-30.960096 -5.1638093 -5.2900381
-31.003473 -5.1059208 -5.2893496
-31.069984 -5.0142789 -5.292511
-31.106169 -4.9662051 -5.2916174
-30.619841 -5.7019463 -5.1720676
-31.021389 -5.1178608 -5.236424
-31.100725 -5.006804 -5.2427607
-31.137306 -4.9592576 -5.240303
-30.639393 -5.7673268 -5.0374408
-30.640924 -5.7136517 -5.113224
-30.721308 -5.6492214 -5.0490284
-30.653084 -5.7879109 -4.9801693
-30.7477 -5.6557932 -4.987246
-30.645525 -5.8858442 -4.8513036
-30.664434 -5.8303695 -4.8954072
-30.621374 -5.9814892 -4.7585816
-30.642567 -5.9249601 -4.7997098
-30.67115 -5.8637171 -4.8331742
-30.593794 -6.083889 -4.6627049
-30.62039 -6.0272093 -4.6933899
-30.06399 -6.8716588 -4.5526519
-30.130316 -6.7994246 -4.5276861
-30.562466 -6.1807442 -4.5823808
-30.582237 -6.1432524 -4.5983715
-30.001818 -7.0067835 -4.4770694
-30.045876 -6.9433928 -4.4831109
-30.113678 -6.8653135 -4.4638114
-30.131145 -6.8120031 -4.507576
-30.291338 -6.606082 -4.4934707
-30.298494 -6.5777426 -4.5209436
-30.579008 -6.1968508 -4.5260568
-30.634214 -6.1340237 -4.5092421
-30.679071 -6.0862222 -4.4908152
-30.728657 -6.0168118 -4.4947758
-30.805376 -5.9139967 -4.4941783
-30.933786 -5.7394781 -4.4967494
-30.977413 -5.6823378 -4.4944696
-31.066868 -5.5502419 -4.511703
-31.112938 -5.4788809 -4.5254712
-31.161011 -5.4207478 -4.5158606
-31.35198 -5.1511321 -4.5344772
-31.393213 -5.0943947 -4.5363293
-31.444952 -5.0209875 -4.541903
-31.590693 -4.8183517 -4.551527
-31.632065 -4.7613482 -4.5534868
-31.683996 -4.6932387 -4.5509095
-30.17581 -6.8731484 -4.3295598
-30.216305 -6.8125391 -4.3385587
-30.260847 -6.7458682 -4.3484578
-30.331738 -6.6325479 -4.3748012
-30.380165 -6.5694199 -4.3718243
-30.445501 -6.4775944 -4.3775835
-30.494108 -6.395525 -4.4020624
-30.702648 -6.1356626 -4.3716421
-30.721243 -6.1096334 -4.3731275
-30.841883 -5.8857946 -4.4634676
-30.895903 -5.8396196 -4.4245496
-30.94734 -5.7601576 -4.43961
-31.031891 -5.6497936 -4.4346251
-31.06908 -5.5977364 -4.4375954
-31.139687 -5.4974585 -4.4453521
-31.188219 -5.4303441 -4.44803
-31.248989 -5.3653808 -4.4233532
-31.324249 -5.2609468 -4.428019
-31.375113 -5.1745758 -4.4543605
-31.421246 -5.0926466 -4.4835167
-31.475283 -5.0235052 -4.4782963
-31.546774 -4.9351368 -4.4668112
-31.599716 -4.8524432 -4.4836502
-31.658131 -4.7758188 -4.4807501
-31.708858 -4.7015343 -4.4896173
-31.781473 -4.6108336 -4.4793377
-31.821672 -4.539444 -4.5047417
-31.874601 -4.4779482 -4.4904747
-30.068287 -7.064888 -4.2604432
-30.123949 -6.9919662 -4.2575526
-30.181265 -6.9044485 -4.27283
-30.230577 -6.8308463 -4.2834954
-30.288422 -6.7498665 -4.288115
-30.348337 -6.6659966 -4.2929015
-30.3953 -6.5910916 -4.3101029
-30.458681 -6.4970269 -4.3230119
-30.528408 -6.4102879 -4.3126264
-30.584398 -6.3341713 -4.3137755
-30.637447 -6.2641172 -4.3118415
-30.712681 -6.1594071 -4.3169594
-30.755621 -6.1004438 -4.3187079
-30.820221 -6.0191741 -4.3104177
-30.882202 -5.9324112 -4.3153687
-30.930958 -5.8504233 -4.3394399
-30.983847 -5.7798195 -4.3386207
-31.043058 -5.6921234 -4.3504114
-31.093962 -5.6016331 -4.3827233
-31.145613 -5.5293303 -4.3868489
-31.214825 -5.432445 -4.3923774
-31.267508 -5.3586965 -4.3965855
-31.323292 -5.2806096 -4.4010415
-31.397093 -5.1882915 -4.3907957
-31.454872 -5.1199703 -4.376965
-31.488369 -5.0632658 -4.3940516
-31.577414 -4.924881 -4.42134
-31.626177 -4.8723254 -4.4021773
-31.670385 -4.7947364 -4.4287663
-31.819139 -4.5865049 -4.4406486
-31.852196 -4.5402312 -4.4432888
-31.897861 -4.4969182 -4.4166727
-30.136578 -6.9967737 -4.2255459
-30.209917 -6.9179311 -4.1964335
-30.264734 -6.8482962 -4.1903877
-30.324356 -6.7496204 -4.2174878
-30.380207 -6.6817741 -4.20678
-30.426865 -6.6247706 -4.1982937
-30.657219 -6.2679639 -4.2671332
-30.725397 -6.1725245 -4.2725792
-30.790854 -6.0973845 -4.2535963
-30.836214 -6.035181 -4.255322
-30.891966 -5.9572186 -4.2596555
-31.007826 -5.7840414 -4.2850513
-31.045013 -5.7319837 -4.2880216
-31.642715 -4.8884306 -4.3458524
-31.709044 -4.8161964 -4.3208861
-30.248167 -6.9230099 -4.1134038
-30.300356 -6.8695855 -4.0887494
-30.407251 -6.686583 -4.146287
-30.456835 -6.6171732 -4.1502476
-36.23774 0.32776889 -2.927315
-36.26416 0.37772769 -2.9484804
-36.327473 0.45567104 -2.9378452
-36.382565 0.54423982 -2.9590592
-36.424835 0.61165392 -2.9745412
-34.88155 -1.6416684 -2.7147436
-34.917721 -1.5870266 -2.7235174
-34.935947 -1.5426179 -2.7527156
-36.251801 0.31996498 -2.8880858
-36.284065 0.33667216 -2.8488705
-36.435886 0.55704874 -2.8725266
-36.444771 0.5763523 -2.8833241
-30.448137 -7.920989 -2.2530098
-30.466732 -7.8949599 -2.2544951
-34.555138 -2.1672957 -2.5877907
-34.597382 -2.0990024 -2.6046154
-34.648788 -2.0132954 -2.6288981
-34.720867 -1.9182888 -2.6260085
-34.771358 -1.8501797 -2.6262727
-34.817528 -1.7720948 -2.649713
-34.886406 -1.6790546 -2.6502528
-34.935841 -1.6040756 -2.6626914
-34.988346 -1.5414118 -2.6509767
-36.378742 0.43125021 -2.8007088
-30.44784 -7.9591942 -2.1975019
-30.502571 -7.8827815 -2.2015777
-30.562473 -7.8067427 -2.1948893
-30.618349 -7.7300534 -2.1971107
-30.665775 -7.6621375 -2.2031407
-30.755167 -7.5461626 -2.1968303
-30.792355 -7.4941044 -2.199801
-31.201429 -6.9214683 -2.2324767
-34.47403 -2.3403771 -2.4938827
-34.510201 -2.2729461 -2.5214317
-34.550323 -2.1969357 -2.5537794
-34.889301 -1.7590644 -2.5270536
-34.912094 -1.7111309 -2.5524125
-30.454357 -7.980988 -2.1526265
-30.495678 -7.9231458 -2.1559272
-30.563858 -7.8277063 -2.1613731
-30.713442 -7.6320524 -2.1531458
-30.754499 -7.5733304 -2.1582594
-30.809769 -7.4886241 -2.17345
-30.874315 -7.402276 -2.1727211
-30.923347 -7.3244805 -2.1900883
-30.981842 -7.2532845 -2.1790683
-31.048418 -7.1677251 -2.1731772
-31.112741 -7.0822625 -2.1715896
-31.159521 -7.0045638 -2.1932607
-31.216665 -6.9178085 -2.2077529
-31.281654 -6.8418031 -2.1909666
-31.334084 -6.7770004 -2.1825447
-31.990763 -5.8638659 -2.2260313
-32.052822 -5.7873774 -2.2157443
-32.103477 -5.713716 -2.2238259
-32.166653 -5.6222301 -2.2333555
-32.221798 -5.5572519 -2.219826
-32.277855 -5.4833579 -2.2175786
-32.346035 -5.387918 -2.2230246
-32.403515 -5.3013492 -2.2365832
-32.458485 -5.2135949 -2.2568393
-32.513256 -5.14147 -2.2545402
-32.578049 -5.0562677 -2.2516451
-32.620541 -4.9990759 -2.2516768
-32.869732 -4.6438398 -2.2809968
-32.921757 -4.5703793 -2.2860839
-32.967636 -4.5132027 -2.2794018
-33.061501 -4.3795156 -2.290262
-33.094921 -4.3344526 -2.2904093
-33.157986 -4.2513218 -2.2878809
-33.212685 -4.1696029 -2.2998159
-33.268467 -4.091516 -2.3042717
-33.328915 -4.002892 -2.314985
-33.380703 -3.9326859 -2.3157589
-33.445057 -3.8391628 -2.3259435
-33.50396 -3.7630944 -2.3212807
-33.568851 -3.6716006 -2.327425
-33.611946 -3.6033618 -2.342484
-33.672428 -3.5311882 -2.3289731
-33.808788 -3.3403094 -2.339865
-33.876968 -3.2448699 -2.3453109
-33.988533 -3.0886965 -2.3542225
-34.031685 -3.0243688 -2.3634338
-34.087704 -2.9498754 -2.362144
-34.138985 -2.8719828 -2.3752074
-34.201954 -2.7830749 -2.3813579
-34.257736 -2.7049882 -2.3858137
-34.313908 -2.6271179 -2.3891799
-34.38232 -2.5335374 -2.3914418
-34.425423 -2.4587998 -2.4160218
-34.459778 -2.3809354 -2.4624805
-34.890736 -1.7921729 -2.4756074
-34.90873 -1.7456138 -2.5084293
-35.438889 -1.0584402 -2.470073
-35.474957 -1.0040278 -2.4787185
-35.519463 -0.94564819 -2.4765091
-32.359261 -5.3831439 -2.2039051
-32.433636 -5.2790279 -2.2098463
-32.470825 -5.2269702 -2.2128167
-32.539005 -5.1315308 -2.2182627
-32.592724 -5.0563359 -2.2225535
-32.650852 -4.9795499 -2.2204711
-32.713829 -4.9079461 -2.2011876
-32.772354 -4.8291321 -2.2012978
-32.826786 -4.7581344 -2.1980152
-32.870125 -4.6771798 -2.231261
-32.948078 -4.5588946 -2.2509384
-33.000511 -4.494092 -2.2425163
-33.047619 -4.4256639 -2.2499223
-33.084438 -4.3680158 -2.2618303
-33.18182 -4.2362795 -2.2628834
-33.217838 -4.1835718 -2.2691231
-33.282776 -4.090374 -2.277673
-33.326164 -4.0296397 -2.2811387
-33.400539 -3.925524 -2.2870798
-33.455795 -3.8540673 -2.2828465
-33.525589 -3.75563 -2.2895024
-33.574089 -3.6825874 -2.3009422
-33.661694 -3.5736973 -2.2877638
-33.69537 -3.5196886 -2.3005416
-33.753014 -3.4412878 -2.3017833
-33.800114 -3.3701158 -2.3132317
-33.873772 -3.2733891 -2.3097479
-33.929245 -3.2060373 -2.2990472
-33.977333 -3.1242177 -2.3241854
-34.038944 -3.0318642 -2.3380737
-34.09473 -2.9537773 -2.3425295
-34.150513 -2.8756907 -2.3469853
-34.206295 -2.7976038 -2.3514411
-34.330257 -2.6240776 -2.3613429
-34.373642 -2.5633435 -2.3648086
-34.910198 -1.819132 -2.3975787
-34.988087 -1.7169671 -2.3937123
-35.025276 -1.6649094 -2.3966827
-35.087257 -1.5781463 -2.4016337
-35.148407 -1.4788049 -2.4266944
-35.199749 -1.4103699 -2.4257514
-35.23518 -1.3573365 -2.4336255
-35.356777 -1.2249076 -2.3878543
-35.38023 -1.195516 -2.3846836
-35.443233 -1.0729694 -2.440156
-35.517612 -0.96885371 -2.4460971
-35.548397 -0.93262893 -2.4384682
-35.590137 -0.88794333 -2.4216261
-35.788475 -0.61030149 -2.437469
-35.912514 -0.41743055 -2.4756231
-35.952309 -0.37409014 -2.4606438
-36.397549 0.21482033 -2.4457681
-36.427979 0.2894792 -2.4952762
-36.486958 0.37844816 -2.5094025
-36.537983 0.44651991 -2.5085466
-36.620354 0.54350501 -2.488225
-36.667107 0.60714459 -2.48931
-36.719936 0.6883086 -2.5041122
-36.783436 0.7626313 -2.4878006
-36.852692 0.85881799 -2.4922121
-36.900318 0.94609475 -2.5262804
-36.949295 1.0160285 -2.5322099
-37.022053 1.1010489 -2.5133061
-37.07489 1.1939 -2.5452681
-37.125965 1.2619534 -2.5443048
-37.19276 1.3485934 -2.5395513
-37.253109 1.4274505 -2.5361183
-36.764069 0.71414429 -2.4548688
-36.801254 0.76620245 -2.4578393
-36.844643 0.82693624 -2.4613049
-37.278511 1.4342785 -2.495961
-35.300011 -2.0314925 -1.3156739
-35.368469 -1.9402459 -1.3144168
-35.418056 -1.8708353 -1.3183775
-35.957291 -1.1159965 -1.3614501
-35.975883 -1.0899676 -1.3629353
-36.106045 -0.90776509 -1.3733321
-36.310581 -0.62144697 -1.38967
-36.347214 -0.56100357 -1.406047
-36.37352 -0.51502073 -1.4215988
-35.224892 -2.1755846 -1.2525082
-35.255051 -2.1196246 -1.2750932
-35.30732 -2.0395873 -1.2893564
-35.369301 -1.9528241 -1.2943072
-35.425083 -1.8747373 -1.298763
-35.492405 -1.7942424 -1.2839643
-35.546158 -1.722741 -1.2827555
-35.617588 -1.6405945 -1.2622588
-35.668655 -1.5643128 -1.2733833
-35.730709 -1.4658085 -1.2954333
-35.785339 -1.4002098 -1.2838247
-35.845924 -1.3207487 -1.2808176
-35.905239 -1.2359688 -1.2881176
-35.951283 -1.1503596 -1.32286
-36.018513 -1.0617023 -1.3202244
-36.066494 -0.99244153 -1.3271319
-36.111732 -0.91698068 -1.3485664
-36.250263 -0.73336613 -1.3444998
-36.294781 -0.66417378 -1.358144
-36.348598 -0.58196712 -1.3725311
-35.893261 -1.2743268 -1.255456
-33.148842 -6.3344197 0.75269878
-33.100788 -6.4612274 0.84396613
-33.186111 -6.3251057 0.8126508
-33.093571 -6.5056872 0.89498287
-33.224281 -6.3318706 0.89799267
-33.233059 -6.4134827 1.0351609
-33.240696 -6.3753123 0.99419904
-36.472057 -1.867056 0.75828022
-36.502651 -1.812549 0.73868668
-33.227009 -6.4585929 1.0894464
-36.474678 -1.9169786 0.83675724
-33.204304 -6.5590811 1.19214
-36.49102 -1.9696734 0.94641954
-36.489361 -1.9445169 0.90620035
-36.616837 -1.7729419 0.90610594
-31.237844 -9.3953876 1.4719528
-31.25778 -9.3640451 1.4653164
-31.33877 -9.2575417 1.4689351
-31.396584 -9.158946 1.4383757
-31.450825 -9.0890579 1.4429117
-31.510292 -9.0146923 1.4511991
-31.645576 -8.8280649 1.4444286
-31.688963 -8.7673302 1.4409627
-31.748051 -8.6806927 1.4304783
-31.806726 -8.6024799 1.431556
-31.862871 -8.5070925 1.4024117
-31.882956 -8.4751596 1.395203
-33.213421 -6.6287661 1.3124681
-36.517963 -1.9846303 1.0216086
-36.679394 -1.7632393 1.0154395
-31.208004 -9.4818172 1.5399084
-31.246813 -9.4286404 1.5384886
-31.297398 -9.3518276 1.525646
-31.352158 -9.2680035 1.5107391
-31.41523 -9.1848736 1.5132674
-31.465425 -9.1077261 1.4991701
-31.529472 -9.0180712 1.4940542
-31.588068 -8.9415455 1.4974437
-31.65316 -8.8565083 1.501164
-31.693678 -8.7772188 1.4647969
-31.757511 -8.6902714 1.4632294
-31.81727 -8.6083345 1.4609778
-31.876013 -8.5238132 1.4529227
-31.904043 -8.486865 1.4540465
-33.208328 -6.6542134 1.339776
-33.348011 -6.5136471 1.4093227
-33.422112 -6.4053388 1.3966783
-33.44669 -6.3503203 1.3644513
-33.509159 -6.288063 1.3964505
-33.578266 -6.1810207 1.3757986
-33.63456 -6.0850425 1.346082
-33.684387 -6.005301 1.3274285
-33.740711 -5.9391932 1.3416376
-33.805073 -5.8620586 1.3555204
-33.863846 -5.753089 1.3116263
-33.913395 -5.6933508 1.3217921
-33.974094 -5.6179957 1.3310664
-34.039856 -5.5405998 1.3473349
-34.105087 -5.4483709 1.3407793
-34.157745 -5.3654337 1.3230261
-34.210506 -5.2879786 1.3135264
-34.258297 -5.2256517 1.3164353
-34.376896 -5.07338 1.3271383
-34.581432 -4.7870617 1.3108002
-36.569004 -1.9714197 1.1030397
-36.713772 -1.75405 1.0698589
-36.733196 -1.7405989 1.0884836
-37.709133 -0.40422508 1.0542432
-31.231802 -9.52672 1.6528553
-31.278721 -9.4503918 1.6334569
-31.314009 -9.3952599 1.6222328
-33.398422 -6.4568148 1.4254715
-33.50111 -6.3199453 1.4273574
-33.519703 -6.2939162 1.4258722
-33.586853 -6.2048278 1.4277143
-34.019066 -5.6017623 1.3960723
-34.063332 -5.5415168 1.3950583
-34.123146 -5.4649568 1.4008136
-34.174019 -5.3848553 1.3836951
-34.232487 -5.2961407 1.3689375
-34.296455 -5.2198038 1.3832271
-34.351704 -5.1533036 1.3947221
-34.417084 -5.0552988 1.3799717
-34.475872 -4.9829216 1.3898479
-34.530624 -4.9031606 1.3808881
-34.584576 -4.8199644 1.3653121
-34.645912 -4.7380347 1.3661778
-34.709442 -4.6662698 1.3863236
-34.775719 -4.5798721 1.3903966
-34.83268 -4.4903231 1.3714353
-34.888226 -4.4086423 1.3612339
-34.951275 -4.3380504 1.3821385
-35.013256 -4.251287 1.3771876
-35.65786 -3.3489509 1.3256983
-35.707443 -3.2795405 1.3217379
-36.593773 -2.0388284 1.2509402
-36.617069 -1.9814821 1.2127627
-36.790447 -1.7360306 1.1948779
-36.869167 -1.6464438 1.2188538
-36.912556 -1.5857095 1.2153883
-36.99313 -1.4729177 1.2089522
-37.041733 -1.4056517 1.2061911
-37.09967 -1.3260705 1.2038049
-37.149471 -1.2550491 1.1979053
-37.221077 -1.1528546 1.1893035
-37.33564 -0.98934436 1.175541
-37.38802 -0.92471898 1.184135
-37.455307 -0.83282131 1.1821231
-37.489704 -0.75718498 1.1390235
-37.555161 -0.67014557 1.1405201
-37.607983 -0.5984925 1.1396643
-37.68045 -0.51250398 1.1565732
-37.72694 -0.42892128 1.1256779
-37.792305 -0.35519165 1.1465577
-37.834301 -0.29679996 1.14378
-38.376202 0.46544161 1.0951135
-38.428967 0.54289716 1.0856149
-38.489456 0.6302712 1.0768201
-38.541828 0.70873791 1.0650707
-38.584797 0.77576107 1.0515501
-31.25647 -9.5458832 1.7297254
-31.303524 -9.4770565 1.7216218
-34.57402 -4.8798833 1.4324485
-34.618492 -4.8227816 1.4364619
-34.669636 -4.7487841 1.4288462
-34.726906 -4.6658678 1.4202363
-34.792076 -4.5785666 1.4207954
-34.847103 -4.503716 1.4196019
-34.883923 -4.4460678 1.4076941
-34.949417 -4.3612561 1.4125503
-35.029739 -4.2574105 1.4187436
-35.079906 -4.1913528 1.4208622
-35.138584 -4.1131415 1.4219401
-35.207886 -4.0200562 1.4221685
-35.268864 -3.9327359 1.414416
-35.317802 -3.8604145 1.4048928
-35.379654 -3.7817249 1.4115516
-35.436165 -3.7017539 1.4057685
-35.493 -3.6209471 1.3993945
-35.554981 -3.534184 1.3944432
-35.610764 -3.4560962 1.3899876
-35.663036 -3.3760598 1.375724
-35.725018 -3.2892966 1.3707727
-35.780533 -3.2145243 1.3706622
-35.840092 -3.1350739 1.3716697
-35.902073 -3.0483108 1.3667181
-35.967999 -2.958143 1.3645563
-36.088848 -2.8005989 1.3719759
-36.138077 -2.7257977 1.3593971
-36.198963 -2.6395817 1.3530922
-36.259159 -2.5599039 1.3550096
-36.313995 -2.4802809 1.3464262
-36.368294 -2.4035347 1.3410081
-36.42757 -2.3161371 1.3297879
-36.484695 -2.2327368 1.3201805
-36.536964 -2.1526985 1.3059179
-36.59856 -2.0674546 1.3024381
-36.846039 -1.7063055 1.2610537
-36.868149 -1.6822273 1.2693758
-36.936996 -1.5841311 1.2613542
-36.98674 -1.5299557 1.2800788
-37.071854 -1.3833308 1.2329284
-37.102844 -1.3399494 1.2304529
-37.174538 -1.246461 1.234814
-37.202015 -1.2011284 1.2225316
-37.406551 -0.91481006 1.2061937
-37.461807 -0.84335351 1.2104268
-37.73505 -0.45496574 1.1799541
-37.815628 -0.34217378 1.1735179
-37.859013 -0.28143957 1.1700525
-37.935051 -0.2024806 1.2043304
-38.000175 -0.12230953 1.2152692
-38.025337 -0.082962908 1.2072064
-38.121826 0.045230407 1.2095873
-38.172985 0.1280871 1.1889938
-38.224915 0.21014933 1.1710891
-38.283905 0.28241763 1.1815088
-38.344799 0.37281221 1.1690787
-38.396397 0.45019194 1.1573911
-38.452183 0.52827853 1.1529354
-38.506622 0.60953206 1.1411879
-38.615181 0.77707005 1.1096517
-31.267885 -9.5683765 1.7853073
-35.296322 -3.923744 1.4554567
-35.333508 -3.8716862 1.4524863
-35.370697 -3.8196285 1.4495157
-35.438877 -3.724189 1.4440697
-35.513004 -3.6320517 1.4552199
-35.567432 -3.5518665 1.4450097
-35.693001 -3.3684602 1.4237711
-35.922329 -3.047437 1.405453
-35.983414 -2.9642162 1.4039363
-36.046894 -2.8944409 1.4268874
-36.0919 -2.8188145 1.4047472
-36.154671 -2.7280858 1.3955411
-36.208801 -2.6542747 1.3940994
-36.263226 -2.5702398 1.3782232
-36.337601 -2.4661243 1.3722821
-36.380989 -2.40539 1.3688165
-37.965435 -0.20117167 1.2624313
-38.016361 -0.12644711 1.2533194
-38.071545 -0.055868961 1.2587019
-38.134239 0.025122182 1.2636207
-38.173958 0.090724587 1.245775
-38.259678 0.21346894 1.2348926
-38.29929 0.26828307 1.2326589
-38.358147 0.35267961 1.22501
-38.413967 0.44043902 1.2064279
-38.444958 0.48382065 1.2039526
-31.938431 -2.9163699 -6.2454696
-31.961679 -2.9047141 -6.2166529
-30.369425 -5.4942942 -5.6873837
-30.423988 -5.542727 -5.5934978
-30.964474 -4.7516718 -5.5172486
-30.50976 -5.5085111 -5.4078746
-30.528164 -5.5901904 -5.3180103
-30.505421 -5.5298777 -5.3098006
-30.868011 -5.12464 -5.3302073
-30.949862 -5.0223618 -5.3186922
-30.968576 -4.9961619 -5.3201876
-30.542063 -5.6061735 -5.2343826
-30.545565 -5.5268188 -5.2039914
-30.905996 -5.1321731 -5.2441092
-30.967546 -5.0321803 -5.2693343
-30.996874 -5.0118718 -5.2412148
-31.02039 -4.8630147 -5.2007837
-30.581385 -5.6349812 -5.1471014
-30.60693 -5.5521274 -5.1351175
-30.60745 -5.4689145 -5.1268997
-30.88958 -5.110045 -5.1572027
-30.963209 -5.0566502 -5.1632509
-31.033272 -4.9823136 -5.1718321
-31.081348 -4.9079871 -5.1661434
-30.563917 -5.6996613 -5.0259099
-30.578772 -5.6510916 -5.0361948
-30.652096 -5.5758018 -5.0749903
-30.913206 -5.1105475 -5.0490746
-30.957575 -5.0460057 -5.0561743
-31.01372 -4.9698424 -5.0571027
-31.099251 -4.9146686 -5.075417
-31.169308 -4.8880568 -5.0823665
-30.565273 -5.7057848 -4.9261861
-30.605949 -5.6631241 -4.9297314
-30.674175 -5.6295724 -4.9717374
-30.994677 -5.0452437 -4.9840093
-31.047453 -4.9833064 -4.970696
-31.107254 -4.9108028 -4.9696312
-31.186996 -4.8978753 -5.0330081
-30.611492 -5.7630196 -4.851315
-31.156782 -4.9018869 -4.8742599
-31.182755 -4.8794594 -4.855885
-30.530617 -5.9114604 -4.6997375
-30.568224 -5.8622789 -4.7419424
-30.585993 -5.7748313 -4.7555337
-31.180876 -4.9029799 -4.8250608
-31.193439 -4.8853917 -4.8260641
-30.534496 -6.0602245 -4.6153374
-30.541397 -5.9538641 -4.6516056
-30.538025 -5.8725019 -4.6714635
-31.138388 -5.0390525 -4.7091937
-29.9027 -6.9544072 -4.4973874
-29.908346 -6.8684363 -4.4955649
-30.004009 -6.8512292 -4.5018845
-30.536364 -6.058187 -4.5591898
-30.517946 -5.98417 -4.5471621
-30.002142 -6.8745866 -4.4712734
-30.027096 -6.8396535 -4.4732666
-30.520796 -6.1623888 -4.4923935
-30.585888 -6.0643592 -4.5077472
-30.598814 -5.982964 -4.4954495
-30.728361 -5.8224244 -4.4752464
-30.789034 -5.7678003 -4.4710145
-30.817675 -5.655395 -4.4909282
-30.888054 -5.576262 -4.4857936
-30.891117 -5.5035725 -4.5156217
-31.018797 -5.4184651 -4.5300546
-31.046803 -5.3627725 -4.5210786
-31.139273 -5.3104587 -4.5214868
-31.275688 -5.1056666 -4.5526919
-31.31299 -5.0281301 -4.5503387
-31.361771 -4.91471 -4.5213208
-31.407213 -4.8710265 -4.5159297
-31.460812 -4.7971539 -4.533699
-31.567669 -4.7107763 -4.555706
-31.618906 -4.6143584 -4.5429263
-31.654718 -4.5309935 -4.5296397
-31.701937 -4.4500933 -4.5315213
-31.74439 -4.3602014 -4.5087967
-31.804296 -4.2757607 -4.5144339
-31.870033 -4.1843219 -4.5188327
-31.913134 -4.1181846 -4.5307961
-32.009411 -4.051415 -4.5449133
-32.06184 -3.9556098 -4.5554404
-32.133854 -3.8914473 -4.569386
-32.151001 -3.7985291 -4.551496
-32.229023 -3.6794751 -4.5509157
-32.272263 -3.615463 -4.5594816
-32.320534 -3.558337 -4.5480003
-32.571819 -3.2065785 -4.5680728
-32.62191 -3.1336768 -4.5761638
-32.672333 -3.0658748 -4.5761013
-32.758022 -2.9788518 -4.6231661
-30.823605 -5.7938361 -4.4353471
-31.079199 -5.4844522 -4.3846841
-31.126408 -5.425283 -4.3783007
-31.44791 -4.9614053 -4.4242892
-31.468782 -4.9128227 -4.4543886
-31.631748 -4.7178907 -4.4186659
-31.67193 -4.6426249 -4.4498
-31.710171 -4.5784769 -4.4684482
-31.779808 -4.4829717 -4.4711089
-31.830608 -4.4053531 -4.4683757
-31.880331 -4.3281865 -4.4694271
-31.953665 -4.2476087 -4.4732389
-32.00613 -4.1676087 -4.4870496
-32.055508 -4.0870996 -4.4900045
-32.125679 -4.0019474 -4.4941211
-32.160526 -3.9074619 -4.4963894
-32.176929 -3.8135483 -4.4944692
-32.249554 -3.6785908 -4.5116563
-32.287247 -3.6258268 -4.514667
-32.352722 -3.5434554 -4.5062642
-32.407448 -3.4714887 -4.503818
-32.462017 -3.3937068 -4.510222
-32.516964 -3.3112204 -4.5227914
-32.583347 -3.2252576 -4.5178685
-32.639889 -3.1461124 -4.5223846
-32.695667 -3.0691297 -4.5252261
-32.768688 -3.0124147 -4.5350971
-29.978279 -7.0808783 -4.2155123
-30.008572 -7.0407782 -4.2145472
-30.156506 -6.8383112 -4.2195935
-30.175222 -6.8121114 -4.2210889
-30.324114 -6.5898533 -4.2532907
-30.355309 -6.5461879 -4.2557831
-30.408489 -6.4708195 -4.261384
-30.476707 -6.3848939 -4.2527871
-30.53083 -6.3143172 -4.2494941
-30.614634 -6.1900878 -4.2663426
-30.650717 -6.1430373 -4.2641473
-30.84277 -5.877655 -4.2744107
-30.880203 -5.8252559 -4.2774005
-30.981281 -5.6208134 -4.2995968
-31.02026 -5.5486732 -4.3061385
-31.09469 -5.4760942 -4.3153362
-31.154776 -5.3839865 -4.3221636
-31.215853 -5.3137293 -4.3228822
-31.268406 -5.2310524 -4.3257432
-31.342091 -5.1635976 -4.3364511
-31.410498 -5.0829301 -4.3197594
-31.459293 -4.9961829 -4.3507347
-31.517666 -4.9132557 -4.3571787
-31.591486 -4.8134398 -4.3579097
-31.63072 -4.7539086 -4.3678126
-31.683029 -4.6585088 -4.3658991
-31.713251 -4.5648866 -4.3567128
-31.786366 -4.5048513 -4.3700886
-31.834002 -4.4019651 -4.3649044
-31.894526 -4.3329425 -4.3762059
-31.954201 -4.248826 -4.381824
-31.998142 -4.1607332 -4.389874
-32.048527 -4.0645137 -4.395256
-32.114815 -3.9908061 -4.3977089
-32.13575 -3.8967702 -4.4161201
-32.212372 -3.802597 -4.4030304
-32.3936 -3.5424042 -4.4270496
-32.45039 -3.4963422 -4.416501
-32.49398 -3.4154935 -4.4150977
-32.538143 -3.3721035 -4.3915606
-32.667881 -3.1542833 -4.4550934
-32.707954 -3.0856485 -4.4766989
-32.801151 -2.9900081 -4.4330192
-29.988892 -7.0867696 -4.1858974
-30.048403 -7.0303626 -4.1511617
-30.096626 -6.9636254 -4.1538849
-30.166498 -6.8717394 -4.150764
-30.227104 -6.7869024 -4.1556048
-30.278662 -6.7272439 -4.1413493
-30.346176 -6.6142969 -4.1738195
-30.381535 -6.5542021 -4.1797037
-30.429583 -6.4800549 -4.1746612
-30.502146 -6.3959651 -4.1862779
-30.558294 -6.3173656 -4.1907625
-30.614445 -6.2387667 -4.1952472
-30.676832 -6.1514344 -4.2002301
-30.738974 -6.0810423 -4.1808252
-30.800251 -5.990654 -4.1924891
-30.852797 -5.8881779 -4.2021804
-30.872377 -5.808959 -4.1998811
-30.941263 -5.7339358 -4.1963916
-30.975912 -5.6297679 -4.2067862
-31.023951 -5.5404654 -4.1990371
-31.085125 -5.4620452 -4.209074
-31.157518 -5.3812995 -4.2161021
-31.19985 -5.2942338 -4.213088
-31.257641 -5.211513 -4.2203712
-31.325211 -5.1407733 -4.2350378
-31.404081 -5.0844994 -4.2469559
-31.451263 -4.9884925 -4.2466097
-31.498285 -4.8959551 -4.250834
-31.592331 -4.8454089 -4.2688036
-31.665094 -4.7604294 -4.2613416
-31.67967 -4.6632433 -4.262538
-31.72127 -4.5643349 -4.2547369
-31.784616 -4.4869208 -4.263505
-31.828478 -4.4267688 -4.2874479
-31.901768 -4.283814 -4.3100548
-31.952026 -4.2134624 -4.3140693
-32.244564 -3.8109174 -4.3272119
-32.480328 -3.4838753 -4.3416619
-32.520607 -3.4286866 -4.3431263
-30.079144 -7.0466747 -4.0539746
-30.132 -6.9832625 -4.0551686
-30.190001 -6.9069118 -4.0526948
-30.251049 -6.8152933 -4.0666132
-30.306684 -6.7387319 -4.0691228
-30.362835 -6.6601329 -4.0736079
-30.40653 -6.5610104 -4.0698447
-30.429474 -6.4745522 -4.0727472
-30.537519 -6.4156027 -4.0875611
-30.593668 -6.3370028 -4.0920463
-30.649818 -6.2584038 -4.0965309
-30.712206 -6.1710711 -4.1015139
-30.759077 -6.0870147 -4.1019726
-30.824951 -6.0120902 -4.1122131
-30.881622 -5.915771 -4.112371
-30.88011 -5.804493 -4.0955243
-30.932323 -5.7301712 -4.1014996
-31.005829 -5.6258249 -4.1094999
-31.056009 -5.5582623 -4.1095743
-31.112549 -5.479116 -4.1140904
-31.175369 -5.3911762 -4.1191087
-31.231909 -5.3120308 -4.1236258
-31.289581 -5.2309289 -4.1287704
-31.344988 -5.1537399 -4.1326575
-31.403238 -5.0763407 -4.1418447
-31.465288 -4.9902806 -4.1451244
-31.520889 -4.9075089 -4.146708
-31.580467 -4.837162 -4.1677189
-31.641937 -4.7513223 -4.1859584
-31.697332 -4.6591234 -4.1628466
-31.747459 -4.5823855 -4.1764917
-31.809361 -4.4953384 -4.1820211
-31.841278 -4.4590178 -4.1723008
-30.113703 -7.0534472 -3.9646387
-30.139296 -6.9846582 -3.9462895
-30.199942 -6.907547 -3.9581921
-30.264202 -6.823235 -3.9609516
-30.313789 -6.7371554 -3.9607902
-30.378649 -6.6633759 -3.972908
-30.405602 -6.5664411 -3.9713616
-30.481359 -6.4936614 -3.9720199
-30.546387 -6.414392 -3.9867969
-30.57091 -6.3095479 -3.9811151
-30.649225 -6.238739 -3.9848742
-30.713671 -6.1692195 -3.9950597
-30.767048 -6.0806823 -3.9983554
-30.815464 -5.9990873 -4.0012603
-30.87499 -5.9232364 -4.0109878
-30.898279 -5.8198452 -4.0370884
-30.965208 -5.7248287 -4.0443821
-31.029545 -5.6400704 -4.0417309
-31.080942 -5.5721049 -4.0399938
-31.132607 -5.494719 -4.0515566
-31.196739 -5.4030423 -4.0594683
-31.249716 -5.3219194 -4.0739245
-31.309311 -5.2444687 -4.0699205
-31.361435 -5.1690135 -4.0777359
-31.413052 -5.0932765 -4.0869713
-31.482548 -5.0110865 -4.0703683
-31.532749 -4.9312901 -4.0883527
-31.714596 -4.6711659 -4.1110578
-31.850084 -4.4884696 -4.1116552
-31.862648 -4.4708819 -4.112659
-30.143084 -7.0604601 -3.8708689
-30.14032 -6.9815464 -3.8444495
-30.194834 -6.8937492 -3.8499238
-30.250465 -6.8181939 -3.8509591
-30.313288 -6.7302542 -3.8559768
-30.369827 -6.6511083 -3.8604934
-30.426367 -6.5719628 -3.8650091
-30.482906 -6.4928169 -3.8695259
-30.543434 -6.415204 -3.8796585
-30.598841 -6.3305283 -3.8787863
-30.662828 -6.238174 -3.8879876
-30.715345 -6.1674395 -3.8880925
-30.778168 -6.0795002 -3.8931105
-30.834707 -6.0003543 -3.8976262
-30.882473 -5.9327145 -3.9025776
-31.175627 -5.5509791 -3.8839602
-31.315649 -5.3503313 -3.9019611
-31.345245 -5.3135424 -3.8975089
-31.567839 -4.9949822 -3.9255137
-31.594601 -4.9533434 -3.9337864
-31.641865 -4.8948402 -3.9263146
-30.163544 -7.070868 -3.793371
-30.157524 -7.0358667 -3.7858107
-30.237705 -6.8848009 -3.778367
-30.280321 -6.8286285 -3.7766588
-30.347345 -6.7437024 -3.7689462
-30.401886 -6.6689048 -3.7710309
-30.438478 -6.6124611 -3.7816231
-30.510563 -6.4958887 -3.8103869
-30.573013 -6.4297199 -3.7841616
-30.635115 -6.3439674 -3.7873881
-30.683952 -6.268362 -3.8019283
-30.740757 -6.1837807 -3.8139021
-30.805822 -6.0825725 -3.8339715
-30.856081 -6.0122204 -3.8379858
-30.893774 -5.9594569 -3.8409965
-31.16559 -5.6068134 -3.8218095
-31.209354 -5.5420671 -3.8304169
-31.286814 -5.4396477 -3.8277748
-31.331644 -5.3673978 -3.8452976
-31.386181 -5.2925992 -3.8473811
-31.451845 -5.2130623 -3.8344502
-31.511948 -5.1358943 -3.8290262
-31.571724 -5.0364361 -3.856976
-31.620625 -4.9628754 -3.8683803
-31.672451 -4.8903251 -3.8725202
-31.748421 -4.789948 -3.8698244
-31.795565 -4.7333074 -3.8598607
-30.391846 -6.7247405 -3.7088814
-30.407412 -6.7006307 -3.7135327
-30.601839 -6.4335713 -3.7215652
-30.655071 -6.3632336 -3.719682
-30.708838 -6.2897124 -3.7214205
-30.782183 -6.1922631 -3.7196105
-31.194086 -5.6226315 -3.7422864
-31.244343 -5.5522795 -3.7463009
-31.307163 -5.4643397 -3.7513187
-31.363703 -5.3851938 -3.7558348
-31.420242 -5.3060479 -3.7603509
-31.476782 -5.2269025 -3.7648671
-31.53496 -5.1466208 -3.7678103
-31.596144 -5.0598168 -3.7744014
-31.646528 -4.9849324 -3.7848167
-31.703407 -4.9044404 -3.7906384
-31.773294 -4.8100114 -3.791219
-31.828583 -4.7344403 -3.7929683
-31.223421 -5.6511989 -3.6423817
-31.27673 -5.5725985 -3.652482
-31.342781 -5.4841132 -3.651916
-31.399321 -5.4049683 -3.6564322
-31.45586 -5.3258219 -3.660948
-31.5124 -5.2466764 -3.6654642
-31.568939 -5.167531 -3.669981
-31.62641 -5.0793481 -3.6859319
-31.682301 -5.0134907 -3.67222
-31.736874 -4.9045978 -3.7242951
-31.799696 -4.8166585 -3.7293131
-31.858963 -4.7565722 -3.7004514
-31.242979 -5.6702461 -3.5757797
-31.386417 -5.4767561 -3.576525
-31.427816 -5.4207888 -3.5769107
-31.481531 -5.3421197 -3.5863135
-31.546133 -5.2601404 -3.5790579
-31.590313 -5.1793966 -3.6103401
-31.668537 -5.0848923 -3.5945659
-31.715189 -5.0238752 -3.5919995
-31.552233 -5.3301959 -3.4641511
-31.574875 -5.2834072 -3.4881136
-31.700478 -5.0808945 -3.5373414
-31.731888 -5.0369244 -3.5398502
-33.175617 -3.1722147 -3.638263
-33.188095 -3.1547482 -3.6392596
-31.57004 -5.3400826 -3.4144499
-31.582603 -5.3224945 -3.4154534
-36.160202 0.4603107 -2.9847572
-36.198177 0.5374974 -2.9813187
-36.258595 0.64789379 -2.9709251
-36.297676 0.703174 -2.9955616
-34.727436 -1.5539459 -2.7361972
-34.775703 -1.4794182 -2.7502775
-34.824177 -1.4080777 -2.7592618
-36.169514 0.43682709 -2.9285126
-36.257889 0.50760692 -2.9523118
-36.284767 0.59643519 -2.9499338
-36.384071 0.70666999 -2.8890564
-30.282757 -7.8268194 -2.3061869
-30.304605 -7.7939157 -2.3113401
-34.460335 -1.977982 -2.6412435
-34.521484 -1.9222244 -2.663029
-34.566582 -1.8400104 -2.6575525
-34.639721 -1.7611606 -2.6760688
-34.707386 -1.6876769 -2.6975257
-34.778355 -1.6192914 -2.7074533
-34.839596 -1.5366402 -2.7313297
-34.887623 -1.4686276 -2.7575634
-36.199551 0.36923909 -2.8643875
-36.202286 0.40365294 -2.8032455
-30.329317 -7.9587588 -2.2330227
-30.344845 -7.8953753 -2.2635365
-30.382175 -7.8048573 -2.2529228
-30.421171 -7.7053976 -2.2360306
-30.486471 -7.6338205 -2.2438071
-30.540573 -7.5349755 -2.2253847
-30.593937 -7.4615221 -2.2278211
-30.6558 -7.3789001 -2.2269201
-30.710245 -7.3026857 -2.2312691
-30.770973 -7.2176776 -2.2361197
-30.827511 -7.1385317 -2.2406361
-30.892885 -7.037271 -2.2601724
-30.940029 -6.9717412 -2.2632565
-31.003412 -6.8923006 -2.2546864
-31.059952 -6.8131547 -2.2592027
-31.119843 -6.7253418 -2.269829
-34.393509 -2.1951132 -2.5607128
-34.448242 -2.1170249 -2.5860033
-34.501343 -2.0282919 -2.607815
-34.581654 -1.9647075 -2.6336129
-34.637802 -1.8861083 -2.6380978
-34.694626 -1.804835 -2.6451755
-34.7528 -1.7182126 -2.6574376
-34.796471 -1.6570799 -2.6609259
-34.911781 -1.5454603 -2.5970261
-34.949272 -1.4939048 -2.5986667
-34.977188 -1.3959235 -2.596292
-36.239967 0.42243472 -2.724041
-36.315586 0.46937054 -2.7290437
-36.363873 0.56787902 -2.7384539
-36.359566 0.64719898 -2.7438695
-30.33993 -7.9646502 -2.2034078
-30.358646 -7.9384503 -2.2049029
-30.433512 -7.8336515 -2.2108829
-30.4932 -7.7570167 -2.2054965
-30.548243 -7.6583619 -2.2061868
-30.591095 -7.5824165 -2.1834445
-30.660196 -7.5036559 -2.2003703
-30.714767 -7.412571 -2.1952302
-30.745474 -7.3211365 -2.1905107
-30.823072 -7.2493043 -2.1992798
-30.878654 -7.1664696 -2.2048569
-30.924959 -7.0792999 -2.205946
-31.013838 -7.0127497 -2.2197669
-31.062403 -6.9346976 -2.2259259
-31.105078 -6.8450236 -2.2239392
-31.149797 -6.7558827 -2.2217307
-32.212955 -5.2548542 -2.2695026
-32.250648 -5.2020903 -2.2725134
-32.313473 -5.1141505 -2.2775314
-32.37001 -5.0350051 -2.2820477
-32.445396 -4.9294772 -2.2880692
-32.470524 -4.8943014 -2.2900765
-33.890293 -2.9068651 -2.4034834
-33.934265 -2.8453074 -2.406996
-33.992901 -2.7632303 -2.4116795
-34.053627 -2.6782219 -2.4165304
-34.09132 -2.625458 -2.4195411
-34.369141 -2.2820797 -2.4659812
-34.416809 -2.2304928 -2.5158818
-34.469997 -2.1832452 -2.5333061
-34.882076 -1.6375214 -2.5205281
-34.870193 -1.5504097 -2.5247674
-34.909035 -1.4459736 -2.5359821
-34.965229 -1.3789176 -2.5234296
-35.039925 -1.2975693 -2.4953132
-35.0839 -1.2360114 -2.4988258
-35.404289 -0.7875191 -2.5244176
-35.416855 -0.76993126 -2.5254211
-36.254257 0.42318726 -2.6229844
-36.304512 0.49353939 -2.6269989
-36.344555 0.55236953 -2.6342876
-30.77375 -7.4126992 -2.1568267
-30.792467 -7.3864994 -2.1583216
-30.935959 -7.1856351 -2.1697834
-30.992386 -7.1112556 -2.1675212
-31.039038 -7.0436463 -2.1746321
-31.179272 -6.8450389 -2.1892185
-31.222042 -6.7874713 -2.18925
-31.257673 -6.7422037 -2.1853268
-31.755199 -5.9095621 -2.2124889
-31.826511 -5.8812871 -2.2193975
-31.870407 -5.779098 -2.2118826
-31.964855 -5.7301779 -2.2135203
-32.029903 -5.6500392 -2.2279904
-32.07576 -5.5544128 -2.2359452
-32.124771 -5.478725 -2.2116103
-32.17593 -5.3835831 -2.2026856
-32.236549 -5.3056946 -2.2241416
-32.301468 -5.2335753 -2.2473447
-32.379978 -5.172895 -2.2724352
-32.418472 -5.0678205 -2.2595816
-32.457966 -4.9756165 -2.2562108
-32.533581 -4.9044533 -2.2462368
-32.585087 -4.8310204 -2.2363727
-32.662079 -4.7560692 -2.2396479
-32.72374 -4.6649756 -2.2410171
-32.755611 -4.5789242 -2.2844193
-32.813595 -4.4934006 -2.2895439
-32.890266 -4.4163961 -2.2744431
-32.942619 -4.3477302 -2.2733436
-32.999355 -4.2620606 -2.2799568
-33.067879 -4.1842527 -2.280098
-33.118935 -4.0954757 -2.3001399
-33.18235 -4.0126472 -2.3091991
-33.248806 -3.9497986 -2.3355944
-33.298649 -3.8631523 -2.3240147
-33.343937 -3.7768574 -2.3361983
-33.416157 -3.6891303 -2.3332307
-33.449226 -3.6021991 -2.3297508
-33.515858 -3.5268815 -2.3390718
-33.58913 -3.4416642 -2.3194525
-33.645206 -3.3661349 -2.3195701
-33.693707 -3.2880013 -2.3207676
-33.765209 -3.208287 -2.346158
-33.81673 -3.1302464 -2.3403642
-33.878838 -3.0415483 -2.3513973
-33.941849 -2.9604337 -2.3764768
-34.01244 -2.8917425 -2.3836408
-34.048828 -2.7952287 -2.3870411
-34.115299 -2.72738 -2.3996429
-34.169655 -2.6469765 -2.4032271
-34.222244 -2.5597811 -2.3925924
-34.267658 -2.468142 -2.3951545
-34.334206 -2.4016473 -2.4154849
-34.392239 -2.3474202 -2.4458613
-34.856972 -1.7475832 -2.408519
-34.890228 -1.6835124 -2.4368989
-34.907055 -1.5703055 -2.4281812
-34.968075 -1.4827764 -2.429065
-35.038239 -1.4164219 -2.4442627
-35.088371 -1.325249 -2.4475117
-35.134129 -1.2406627 -2.4486887
-35.186024 -1.1670986 -2.4430046
-35.259384 -1.0710114 -2.4391699
-35.314426 -1.0011353 -2.466589
-35.368446 -0.92191559 -2.4805403
-35.453121 -0.84548908 -2.480984
-35.482456 -0.76295012 -2.4810934
-35.538677 -0.65743065 -2.4499454
-35.586277 -0.58151072 -2.46738
-35.657486 -0.51829821 -2.4695282
-35.710484 -0.41360798 -2.4685378
-35.767117 -0.34328663 -2.4599156
-35.829403 -0.2620672 -2.4561265
-36.288059 0.40636286 -2.531508
-36.348747 0.46682081 -2.5390265
-36.400311 0.53859252 -2.5342708
-36.463898 0.62612391 -2.5068085
-36.589542 0.80200273 -2.5168445
-36.627235 0.85476702 -2.5198553
-36.781841 1.0454068 -2.5368643
-36.844486 1.0996591 -2.5565262
-36.877193 1.197261 -2.5555146
-36.951233 1.2778246 -2.554116
-37.01889 1.3455338 -2.5730135
-37.053402 1.4176478 -2.575295
-37.119061 1.5478772 -2.5659571
-37.161217 1.6022538 -2.5625083
-32.649563 -4.8560309 -2.2051194
-32.711948 -4.7686987 -2.2101028
-32.76133 -4.7055063 -2.2053437
-33.87236 -3.144316 -2.3027933
-34.874104 -1.7489611 -2.3726552
-34.905975 -1.7026212 -2.3777399
-34.975723 -1.602098 -2.3875418
-35.026535 -1.5286666 -2.3949854
-35.063969 -1.476267 -2.3979754
-35.145073 -1.3627349 -2.4044538
-35.213699 -1.2666693 -2.4099355
-35.262707 -1.2003691 -2.4104652
-35.32811 -1.1193566 -2.4002168
-35.370224 -1.0567787 -2.4088993
-35.51181 -0.85282224 -2.4286704
-35.534504 -0.78143406 -2.4089482
-35.558567 -0.67232442 -2.3887813
-35.62756 -0.60083461 -2.3910103
-35.71468 -0.56803501 -2.4308712
-35.788502 -0.47587201 -2.4355404
-35.829166 -0.39857137 -2.4383419
-35.914627 -0.29585832 -2.4506924
-35.920952 -0.21183804 -2.4340456
-35.958511 -0.11267371 -2.4204278
-36.011593 -0.030243991 -2.4365966
-36.066246 0.048583813 -2.4443707
-36.188328 0.22644022 -2.4643469
-36.348125 0.28676224 -2.449779
-36.327202 0.34645441 -2.4643114
-36.417782 0.41884571 -2.5061142
-36.480167 0.50617838 -2.5110977
-36.520527 0.62609524 -2.4799209
-36.571136 0.68152452 -2.4943919
-36.62862 0.75709492 -2.5065503
-36.693531 0.84529537 -2.5025182
-36.750233 0.92586178 -2.4946246
-36.805347 0.99141914 -2.5157893
-36.891926 1.0825722 -2.5439878
-36.940727 1.1641934 -2.5249209
-36.975395 1.2534289 -2.5236926
-37.07909 1.3445694 -2.5589378
-37.11404 1.408041 -2.5476685
-37.145493 1.5029218 -2.5421944
-37.187881 1.5685952 -2.5454407
-35.070057 -2.0904129 -1.3627336
-35.098049 -2.0220649 -1.3838055
-35.14307 -1.9242399 -1.3713887
-35.200684 -1.8464872 -1.3717413
-35.256687 -1.7740616 -1.3674505
-35.306946 -1.7037098 -1.3714648
-35.379955 -1.596864 -1.3841132
-35.442013 -1.5146396 -1.3822536
-35.476562 -1.4662726 -1.3850136
-35.109463 -2.1310091 -1.3201656
-35.171589 -2.058027 -1.3210318
-35.209938 -1.9680102 -1.33164
-35.266811 -1.8894783 -1.32584
-35.31078 -1.7916014 -1.3233947
-35.365108 -1.7052273 -1.3282582
-35.428558 -1.6354166 -1.3326948
-35.472183 -1.538887 -1.3295554
-35.528645 -1.4598502 -1.3340652
-35.586731 -1.3878818 -1.3330771
-35.670929 -1.3101273 -1.3284131
-35.759319 -1.2576756 -1.3452611
-35.802456 -1.203216 -1.3400028
-36.195499 -0.65302181 -1.371398
-36.202808 -0.58388841 -1.3673726
-36.258564 -0.51392114 -1.385656
-36.316063 -0.44058242 -1.4097219
-35.149055 -2.1455281 -1.2471949
-35.188911 -2.0782111 -1.2673014
-35.229324 -2.0193348 -1.2739142
-35.29171 -1.9320023 -1.2788976
-35.425083 -1.7499133 -1.2827816
-35.486244 -1.6636419 -1.2886343
-35.549225 -1.587091 -1.27662
-35.604488 -1.5080022 -1.2835736
-35.657101 -1.4274387 -1.29793
-35.727482 -1.3358322 -1.2933977
-35.780739 -1.2634029 -1.2945278
-35.835426 -1.1864538 -1.299481
-35.882198 -1.1133224 -1.3144597
-35.959259 -0.9975456 -1.3322196
-36.00293 -0.93641317 -1.3357079
-36.046604 -0.87528032 -1.3391962
-36.206112 -0.65891314 -1.341783
-36.231438 -0.61930871 -1.3498986
-33.014793 -6.2772055 0.81568563
-33.092316 -6.29708 0.78546339
-33.038673 -6.4136615 0.85067302
-33.113232 -6.2396588 0.85434479
-33.024139 -6.5031648 0.953376
-33.022465 -6.4778433 0.91289288
-33.133953 -6.2363687 0.93798339
-36.30426 -1.7798212 0.71051508
-36.354671 -1.7105671 0.70841247
-33.177212 -6.3442097 1.0223823
-36.35648 -1.808421 0.77914727
-36.408192 -1.717114 0.76471901
-33.149895 -6.3772235 1.1383491
-36.388981 -1.8540472 0.88059288
-31.136948 -9.2262049 1.4360237
-31.182737 -9.1574659 1.4255495
-31.256308 -9.0591192 1.4264894
-31.28772 -9.0151491 1.4239804
-31.444773 -8.7952995 1.4114354
-31.478516 -8.7420979 1.3999761
-31.520159 -8.6897726 1.4054137
-31.608109 -8.5666571 1.3983885
-31.666418 -8.5270948 1.3846384
-31.745253 -8.5008564 1.3601556
-33.138851 -6.4895549 1.2308538
-36.400913 -1.8647298 0.97298145
-36.561405 -1.6682249 0.94837117
-36.557606 -1.6242626 0.98258692
-31.000555 -9.4768209 1.5345594
-31.077505 -9.423852 1.4954412
-31.126602 -9.350008 1.4911005
-31.185892 -9.2700462 1.4801944
-31.254469 -9.2053223 1.4589837
-31.308649 -9.1051435 1.4349315
-31.36381 -9.0228672 1.4470145
-31.4209 -8.9516516 1.4723941
-31.484602 -8.8618517 1.4485797
-31.54331 -8.7894001 1.4428562
-31.601315 -8.7109089 1.4322286
-31.661324 -8.6225481 1.4281408
-31.727804 -8.553443 1.4231516
-31.770451 -8.5040045 1.4145546
-33.134026 -6.5655913 1.3329692
-33.14119 -6.4926801 1.346342
-33.273529 -6.2980223 1.3573824
-33.298656 -6.2628465 1.3553752
-33.374325 -6.1615682 1.356148
-33.432373 -6.076438 1.3458304
-33.512318 -6.0045052 1.3272885
-33.561359 -5.9292102 1.3219594
-33.604847 -5.8508887 1.3226799
-33.663021 -5.7527962 1.3262711
-33.719559 -5.6736507 1.3217548
-33.768459 -5.6086845 1.3229611
-33.905304 -5.4206028 1.3171427
-34.05056 -5.2801199 1.2915483
-36.420887 -1.8922449 1.1059804
-36.575481 -1.6784062 1.0265516
-36.582539 -1.6381042 1.0521688
-31.048306 -9.5156937 1.5796977
-31.115141 -9.4861803 1.5621229
-31.201258 -9.3453455 1.5254587
-31.230373 -9.3045902 1.5231333
-31.301079 -9.2056141 1.5174853
-31.482002 -8.9523497 1.5030335
-31.531591 -8.889081 1.5080979
-33.079823 -6.6569538 1.4592253
-33.149971 -6.6032901 1.4272823
-33.189011 -6.5116291 1.430774
-33.239849 -6.4310255 1.4330065
-33.305115 -6.3612871 1.4110256
-33.370335 -6.2683682 1.3988191
-33.41507 -6.1945157 1.4063081
-33.498924 -6.1229968 1.3774033
-33.555336 -6.049943 1.3536439
-33.618019 -5.9668903 1.3391837
-33.66333 -5.8729396 1.354509
-33.723625 -5.7912259 1.3638071
-33.762047 -5.7060919 1.3373859
-33.81786 -5.617928 1.3544186
-33.865215 -5.5532985 1.3796452
-33.951729 -5.4497581 1.3707045
-34.014454 -5.3874173 1.3590109
-34.058041 -5.3172197 1.3362688
-34.140553 -5.2446504 1.3109834
-34.195362 -5.1433964 1.3502871
-34.230774 -5.0534463 1.3710047
-34.299332 -4.9933295 1.3619065
-34.367775 -4.9054632 1.3681039
-34.406349 -4.8005614 1.3518038
-34.48035 -4.7435989 1.3275318
-34.538021 -4.6588907 1.3271991
-34.562859 -4.5697737 1.3668673
-34.636745 -4.4691205 1.3437817
-34.691845 -4.4139485 1.345644
-34.757603 -4.2971606 1.3513116
-35.216202 -3.6552012 1.31468
-35.354408 -3.4617341 1.3036404
-35.366974 -3.4441462 1.3026369
-35.643387 -3.0572116 1.2805576
-35.655952 -3.0396235 1.279554
-36.44038 -1.9276297 1.1964463
-36.48407 -1.9272379 1.1662426
-36.682686 -1.6421162 1.1648158
-36.72036 -1.5426724 1.1843077
-36.771008 -1.47254 1.1813977
-37.028183 -1.111768 1.1597192
-37.053314 -1.0765921 1.1577122
-37.248329 -0.80061865 1.1377529
-37.307213 -0.73607737 1.1289511
-37.352673 -0.65853292 1.1352608
-37.428719 -0.57394731 1.1309303
-37.495728 -0.50250024 1.1179214
-37.555492 -0.41971794 1.1055719
-37.595604 -0.33454156 1.0911568
-37.653973 -0.26359078 1.0797439
-37.692986 -0.17326133 1.0950292
-37.74791 -0.11123286 1.1124543
-38.436214 0.82444948 1.0451896
-38.478569 0.877258 1.0336211
-38.494812 0.9454481 1.0364342
-31.118933 -9.5435743 1.6538848
-31.141649 -9.5135002 1.6546079
-33.086143 -6.6647849 1.5257224
-33.148853 -6.6159272 1.5211958
-33.233402 -6.5559216 1.4867613
-33.314423 -6.4610343 1.4649765
-33.3391 -6.4218807 1.4562359
-33.432678 -6.2908821 1.4487609
-33.489666 -6.2249441 1.4645165
-33.94426 -5.5747566 1.4078974
-34.019123 -5.4699578 1.4019173
-34.031601 -5.4524913 1.4009206
-34.249046 -5.1536388 1.3916754
-34.290928 -5.0963926 1.3903596
-34.361343 -4.9964404 1.3827049
-34.409466 -4.9304609 1.3808914
-34.464436 -4.8512068 1.3731161
-34.499512 -4.7974982 1.3635454
-34.59528 -4.6738124 1.3711263
-34.62289 -4.592278 1.3886197
-34.692112 -4.5267453 1.3858498
-34.750435 -4.4307413 1.3679689
-34.781864 -4.3426299 1.3749141
-34.867023 -4.2824163 1.3788244
-34.9235 -4.1940489 1.4026166
-34.987728 -4.1201091 1.4042506
-35.013237 -4.0643582 1.4082173
-35.113384 -3.9241707 1.400218
-35.150196 -3.864938 1.3977741
-35.197781 -3.7632418 1.3837841
-35.27113 -3.6953342 1.3513222
-35.32394 -3.6192608 1.3439574
-35.386215 -3.539923 1.3395833
-35.44051 -3.4592857 1.3373058
-35.493027 -3.3788471 1.3541268
-35.559666 -3.2950583 1.3525324
-35.60593 -3.2135355 1.3449998
-35.669548 -3.1312373 1.3270661
-35.728024 -3.0473056 1.3230006
-35.784874 -2.9684138 1.3234073
-35.844296 -2.8821633 1.3141537
-35.863541 -2.8157628 1.3184417
-36.136959 -2.4522345 1.3093488
-36.184052 -2.3935792 1.2945368
-36.219322 -2.3193777 1.2995235
-36.36208 -2.1284013 1.2893277
-36.407848 -2.04708 1.2810043
-36.476055 -1.9861052 1.2677695
-36.542767 -1.9448724 1.24691
-36.739666 -1.6627034 1.221579
-36.772781 -1.5807434 1.2332491
-36.81794 -1.4950927 1.2262571
-36.871239 -1.4094015 1.2419537
-36.930214 -1.3286604 1.2346411
-36.979431 -1.2478091 1.227738
-37.038082 -1.1593019 1.2213464
-37.09618 -1.0851362 1.224584
-37.152802 -0.99473792 1.220789
-37.206829 -0.92558897 1.2199407
-37.285606 -0.85183132 1.1913236
-37.368595 -0.79254711 1.1737254
-37.411098 -0.69753897 1.1625414
-37.458321 -0.60324174 1.1483326
-37.537018 -0.53688759 1.1409856
-37.612564 -0.46279165 1.1487306
-37.657581 -0.39747095 1.1417493
-37.730427 -0.30333832 1.1474396
-37.759575 -0.20162936 1.1522988
-37.801411 -0.1215358 1.1593487
-38.090145 0.17347141 1.1579686
-38.121338 0.28267297 1.1558515
-38.163975 0.37070617 1.1450038
-38.215839 0.45343983 1.1470162
-38.294125 0.53006268 1.1303326
-38.326614 0.61892134 1.1127489
-38.384167 0.70773053 1.117836
-38.450985 0.76768821 1.0742166
-38.520267 0.83597428 1.0542302
-31.197979 -9.502079 1.7491128
-33.442562 -6.2076378 1.5586014
-34.900021 -4.1674376 1.4421836
-35.020458 -4.1210237 1.438051
-35.064175 -4.0433969 1.438917
-35.125999 -3.9619493 1.4350699
-35.174965 -3.8823168 1.4249942
-35.220856 -3.7854838 1.4170698
-35.309883 -3.7223556 1.4161706
-35.377674 -3.6465888 1.4084803
-35.430565 -3.5702467 1.400871
-35.486713 -3.4916475 1.396386
-35.542862 -3.4130483 1.391901
-35.582996 -3.349951 1.3785412
-35.726768 -3.153307 1.3738266
-35.779934 -3.0811851 1.3729643
-35.836086 -3.0025859 1.3684788
-35.892963 -2.9264247 1.3690126
-35.940552 -2.8217535 1.396854
-35.997288 -2.7394099 1.3900046
-36.051758 -2.6647413 1.3794558
-36.110435 -2.5808516 1.3738875
-36.162201 -2.5004802 1.3640406
-36.245266 -2.4313262 1.3498394
-36.290585 -2.3330371 1.3439739
-36.328804 -2.2411175 1.3513135
-36.397739 -2.1757891 1.3348935
-36.446205 -2.0868721 1.3248791
-36.506687 -2.0236733 1.3196706
-36.805798 -1.6382359 1.2808675
-36.916527 -1.4554994 1.2920265
-36.99826 -1.2302526 1.274582
-37.052708 -1.1540382 1.2702332
-37.113831 -1.096186 1.2635325
-37.161598 -1.0016093 1.2615352
-37.230701 -0.90487576 1.2560154
-37.255829 -0.86970007 1.2540082
-37.398479 -0.80857831 1.2335256
-37.835194 -0.19725138 1.1986421
-37.865475 -0.16039619 1.2043468
-37.889336 -0.045899365 1.2427858
-37.95134 0.017916087 1.239687
-38.023987 0.11216553 1.2403377
-38.083439 0.17975478 1.2094206
-38.133411 0.262936 1.1829273
-38.205467 0.34346676 1.185233
-38.249958 0.42574078 1.1782848
-38.288879 0.49049193 1.1701001
-35.985367 -2.8506718 1.4403272
-36.016819 -2.7980003 1.4251225
-36.120174 -2.6602325 1.4270207
-36.154072 -2.6058691 1.4141592
-38.025703 0.014102839 1.2646582
-38.056896 0.057768967 1.2621667
-31.845076 -2.9058909 -6.2327328
-31.859423 -2.9138551 -6.192697
-31.89105 -2.8695815 -6.1952233
-30.271385 -5.4453559 -5.6128521
-30.373331 -5.4195089 -5.4494047
-30.408745 -5.4325728 -5.3602614
-30.431282 -5.4599237 -5.2755799
-30.478952 -5.4492879 -5.1970248
