# .PCD v0.7 - Point Cloud Data file format
VERSION 0.7
FIELDS x y z
SIZE 4 4 4
TYPE F F F
COUNT 1 1 1
WIDTH 1464
HEIGHT 1
VIEWPOINT 0 0 0 1 0 0 0
POINTS 1464
DATA ascii
-12.023636 -11.579937 -2.702493
-12.03344 -11.501327 -2.7162151
-12.034413 -11.405415 -2.6843379
-12.352137 -12.673162 -2.7753882
-12.259931 -12.601555 -2.7947106
-12.23413 -12.523465 -2.806427
-12.059259 -11.86609 -2.8024406
-12.053765 -11.845896 -2.8026149
-12.016691 -11.608138 -2.7905872
-12.034592 -11.523562 -2.7695277
-12.259748 -12.544354 -2.8592608
-12.224086 -12.493251 -2.8578923
-12.22224 -12.390197 -2.872365
-12.198015 -12.288838 -2.8763711
-12.141967 -12.196134 -2.8730958
-12.135727 -12.105844 -2.8836949
-12.101646 -12.005609 -2.8805959
-12.051522 -11.910863 -2.8679926
-12.030649 -11.812831 -2.8832202
-12.023863 -11.720057 -2.8725138
-12.003738 -11.637518 -2.8558176
-12.182469 -12.275695 -2.9730835
-12.16228 -12.201488 -2.9737246
-12.144863 -12.098161 -2.9486778
-12.112414 -11.996099 -2.960907
-12.093184 -11.913509 -2.9537642
-12.060323 -11.809902 -2.9659886
-12.033561 -11.728386 -2.977809
-11.703445 -10.574029 -3.0266831
-12.25327 -12.671536 -3.0591519
-12.225016 -12.594224 -3.077328
-12.197361 -12.492581 -3.0782056
-12.155087 -12.263495 -3.0315492
-12.133487 -12.209052 -3.0484803
-12.112 -12.144441 -3.0585151
-12.022345 -11.775608 -3.0357618
-11.994722 -11.725192 -3.0699167
-11.964834 -11.644011 -3.0895376
-11.944029 -11.570317 -3.0920043
-11.91209 -11.463035 -3.0996006
-11.887119 -11.356323 -3.0906692
-11.759547 -10.853937 -3.0729001
-11.695071 -10.587476 -3.0557473
-12.219331 -12.661776 -3.1351051
-12.202738 -12.60079 -3.1356318
-12.175083 -12.499147 -3.1365094
-11.896718 -11.46129 -3.1357434
-9.5778694 -5.8425126 -5.1004314
-9.5630951 -5.8029485 -5.1104999
-9.5482388 -5.8573813 -5.1481862
-9.5095444 -5.8152938 -5.147049
-9.7321939 -6.7192926 -5.2971234
-9.7031021 -6.6591001 -5.2834287
-9.680665 -6.5643582 -5.2671385
-9.6527615 -6.4773722 -5.2612748
-9.64013 -6.3758745 -5.2714238
-9.616045 -6.2923908 -5.3008094
-11.518349 -13.506893 -5.2840915
-11.491861 -13.427639 -5.2764478
-11.466689 -13.345303 -5.2949357
-11.433548 -13.237758 -5.2942166
-11.414481 -13.137568 -5.2914271
-11.389055 -13.063021 -5.323082
-11.38728 -12.941463 -5.3351102
-11.363586 -12.848063 -5.331748
-11.313033 -12.742737 -5.3249459
-11.311649 -12.662083 -5.336596
-11.28244 -12.564556 -5.3439226
-11.259645 -12.469716 -5.3374457
-11.227131 -12.36127 -5.3456779
-11.202242 -12.269791 -5.3464675
-11.177353 -12.178311 -5.3472576
-11.149698 -12.076669 -5.348135
-11.133105 -12.015683 -5.3486614
-10.862883 -11.09226 -5.3350978
-10.838379 -11.059194 -5.3392048
-9.735795 -6.9396348 -5.3811994
-9.7117596 -6.8729186 -5.3598442
-9.6742582 -6.7810235 -5.333034
-9.6540632 -6.6817689 -5.3405414
-9.6213322 -6.5829992 -5.3393846
-9.5749035 -6.4944634 -5.3294601
-9.5593271 -6.3971047 -5.3038354
-9.5704174 -6.2921219 -5.3375759
-11.540023 -13.617893 -5.3646255
-11.471062 -13.555381 -5.3289876
-11.418818 -13.09529 -5.3587937
-11.374795 -13.037484 -5.3603439
-11.322518 -12.975869 -5.3569098
-11.289128 -12.896451 -5.3411193
-11.248549 -12.737544 -5.3360491
-11.232066 -12.676964 -5.3365722
-11.204595 -12.575996 -5.3374438
-11.176748 -12.479503 -5.3421421
-11.15146 -12.395342 -5.3486667
-11.129149 -12.292645 -5.3612366
-11.096009 -12.19416 -5.3656526
-11.085508 -12.111044 -5.364017
-11.049168 -12.01728 -5.3505507
-10.803522 -11.101871 -5.3501716
-10.814898 -11.031832 -5.3986039
-10.804598 -10.921661 -5.4329286
-10.779842 -10.83521 -5.4366679
-10.756521 -10.744958 -5.4344544
-10.725603 -10.64658 -5.4453707
-10.69593 -10.541539 -5.4489303
-10.672162 -10.445338 -5.4439249
-10.647548 -10.356339 -5.4456663
-10.618497 -10.256937 -5.4513879
-10.590842 -10.155294 -5.4522653
-10.569035 -10.070227 -5.4497576
-10.540248 -9.9676971 -5.4528046
-10.518466 -9.8966513 -5.4593616
-10.432263 -9.5871859 -5.4668975
-10.37972 -9.3940639 -5.468565
-10.357596 -9.3127489 -5.4692669
-10.327887 -9.1924982 -5.4630103
-10.304051 -9.1028433 -5.4624329
-10.271867 -8.9976549 -5.4719872
-10.254404 -8.9039879 -5.4533424
-10.225801 -8.8136034 -5.4638495
-10.191669 -8.7028894 -5.4745326
-10.164935 -8.6046343 -5.4753809
-10.14189 -8.5199318 -5.4761124
-10.117001 -8.4284525 -5.476902
-10.092112 -8.3369741 -5.4776917
-10.063535 -8.2319422 -5.4785986
-10.040515 -8.1325932 -5.4697294
-10.019588 -8.0493574 -5.4662795
-9.9857435 -7.9401274 -5.4772272
-9.9538383 -7.8287573 -5.48208
-9.93361 -7.7249265 -5.4635224
-9.9181662 -7.6550622 -5.4554801
-9.8903093 -7.5510383 -5.4552975
-9.8620234 -7.4569006 -5.4625945
-9.834053 -7.3590107 -5.466682
-9.8128767 -7.2664371 -5.4577546
-9.7720137 -7.1697478 -5.4533448
-9.7200737 -7.0730152 -5.4321156
-9.6942892 -6.9851451 -5.3932428
-9.6351357 -6.6702294 -5.4194722
-9.6056471 -6.5855074 -5.4223037
-9.5476456 -6.5125837 -5.4073644
-9.4954729 -6.2711167 -5.4273262
-9.5111895 -6.1959291 -5.4922872
-9.4906616 -6.1042628 -5.4823794
-9.4657726 -6.0127835 -5.4831691
-9.4372702 -5.9027643 -5.4806452
-9.413703 -5.814033 -5.4800215
-9.385107 -5.7196536 -5.4879103
-9.3622894 -5.6273341 -5.48313
-8.7840471 -3.5292473 -5.5192027
-10.74835 -11.030879 -5.4377441
-10.723428 -10.948209 -5.4570217
-10.690051 -10.851747 -5.4624801
-10.674492 -10.75454 -5.4369087
-10.654028 -10.663595 -5.4641757
-10.620985 -10.563989 -5.4651155
-10.590825 -10.466549 -5.4522786
-10.563643 -10.376403 -5.4594984
-10.540149 -10.285171 -5.4570656
-10.513202 -10.192228 -5.461894
-10.4857 -10.08309 -5.4575219
-10.462028 -9.9882746 -5.4531879
-10.451866 -9.8782816 -5.4872866
-10.425056 -9.7999849 -5.4878058
-10.420723 -9.6779604 -5.486424
-10.366901 -9.6038914 -5.467361
-10.363979 -9.4974203 -5.4839458
-10.331402 -9.4069462 -5.4782968
-10.298188 -9.3046379 -5.4864302
-10.265475 -9.2165298 -5.4825907
-10.229621 -9.1090488 -5.4811234
-10.217205 -9.0228233 -5.4919405
-10.175483 -8.9311914 -5.4597383
-10.149208 -8.83922 -5.4635692
-10.121389 -8.7362776 -5.4639978
-10.148537 -8.62325 -5.4934807
-10.100317 -8.5301628 -5.4822378
-10.095956 -8.4340076 -5.4910111
-10.027045 -8.3306427 -5.4865675
-10.001691 -8.2414684 -5.4996409
-9.9834251 -8.1485615 -5.4918847
-9.9370222 -8.0635242 -5.4730272
-9.9073381 -7.9632087 -5.4796906
-9.8825121 -7.8778214 -5.4842925
-9.8647327 -7.7685447 -5.4562492
-9.8400087 -7.6776743 -5.4570336
-9.8080769 -7.5686731 -5.4634967
-9.7830105 -7.4811926 -5.467319
-9.757597 -7.3747716 -5.4596491
-9.7291851 -7.2849874 -5.4700866
-9.7044611 -7.1941166 -5.4708714
-9.6916666 -7.1324501 -5.4617414
-9.4323988 -6.226027 -5.5205264
-9.4049129 -6.1250057 -5.5213985
-9.3818836 -6.0363841 -5.5148644
-9.356451 -5.9390306 -5.5200782
-9.3325729 -5.844563 -5.5277324
-9.3265162 -5.7357326 -5.5342917
-9.2918768 -5.6473002 -5.5275269
-9.3297138 -5.5643015 -5.5210848
-8.8314095 -3.7872391 -5.5723429
-8.8026361 -3.699966 -5.5733643
-8.752142 -3.614126 -5.5504928
-8.7471838 -3.5119562 -5.560483
-8.7238426 -3.4127975 -5.589376
-8.6972151 -3.3132915 -5.5891547
-8.6686125 -3.2229064 -5.5996614
-8.6262741 -3.1199696 -5.5902562
-8.5851707 -3.0347316 -5.5781264
-8.5642719 -2.9337764 -5.5722842
-8.5315695 -2.8526819 -5.564229
-8.5128365 -2.7524223 -5.5809751
-8.4919472 -2.6456006 -5.5797658
-8.4603214 -2.5522568 -5.5734773
-8.4655476 -2.4519818 -5.5901065
-9.3223858 -5.9216118 -5.5688167
-9.3031569 -5.850935 -5.569427
-9.2738543 -5.743237 -5.5703564
-8.753665 -3.8752334 -5.6154718
-8.755868 -3.8228221 -5.598527
-8.7268734 -3.7377117 -5.5908942
-8.6655445 -3.5241561 -5.6005602
-8.6564274 -3.4295206 -5.5948343
-8.6172905 -3.337389 -5.5959606
-8.6216297 -3.2374198 -5.6104326
-8.58428 -3.1421607 -5.5995646
-8.3966208 -2.5190091 -5.5981956
-8.3883801 -2.4887187 -5.5984569
-8.4371834 -2.4017847 -5.626205
-8.6412497 -4.537499 -6.5220819
-8.6329536 -4.5070057 -6.5223451
-9.1123581 -6.4115348 -6.5999265
-9.09408 -6.3418961 -6.5989065
-9.0618982 -6.2141385 -6.5937567
-9.0446243 -6.1433725 -6.5895672
-8.9221478 -5.7173367 -6.6091623
-8.9027891 -5.6461864 -6.6097765
-8.8004675 -5.2701068 -6.6130238
-8.7323036 -4.9900937 -6.5959883
-8.6594286 -4.7517257 -6.6174998
-8.6425867 -4.6814032 -6.6125488
-8.5950394 -4.5743299 -6.5821166
-8.5599289 -4.5292559 -6.5517583
-9.0730991 -6.4265389 -6.6469846
-9.0239849 -6.351532 -6.6332741
-9.0019827 -6.2491374 -6.6224909
-8.9735317 -6.1518645 -6.6323628
-8.9480486 -6.0624323 -6.6388636
-8.9305258 -5.9670968 -6.6224847
-8.8910151 -5.8625822 -6.6298795
-8.8619442 -5.7622633 -6.6369925
-8.833437 -5.6715341 -6.6400275
-8.8258009 -5.5760283 -6.6542664
-8.8039446 -5.4764333 -6.6563587
-8.7629833 -5.3767986 -6.648654
-8.7400064 -5.2922573 -6.647378
-8.7485962 -5.190454 -6.6869488
-8.7109146 -5.0887375 -6.6680269
-8.7169523 -5.0147457 -6.649272
-8.6279078 -4.8798928 -6.6682482
-8.6324768 -4.8040848 -6.6573348
-8.6019545 -4.71064 -6.636569
-8.5487785 -4.6113458 -6.6228991
-8.5202217 -4.5547724 -6.624125
-8.9989243 -6.4313641 -6.6852198
-8.9630585 -6.3874016 -6.7435718
-8.7681694 -5.5832376 -6.6925426
-8.7434464 -5.4923668 -6.6933274
-8.7159758 -5.3913994 -6.6941991
-8.6819353 -5.28302 -6.7061777
-8.671834 -5.2082701 -6.7073393
-8.6500454 -5.1490774 -6.6962914
-8.5868626 -4.916852 -6.6982961
-8.4381561 -5.1024532 -7.1797991
-9.7027569 -11.216275 -8.2969408
-9.7002125 -11.186284 -8.2835817
-9.6821299 -11.444134 -8.4953451
-9.6666193 -11.376918 -8.4891911
-9.639452 -11.2686 -8.4845409
-9.630971 -11.471764 -8.5452642
-9.6065264 -11.385858 -8.5233898
-9.5997553 -11.292246 -8.5479412
-8.1184635 -5.8443675 -8.6409616
-8.1074018 -5.80371 -8.6413126
-9.5463648 -11.389536 -8.6674175
-9.5620108 -11.323668 -8.6271248
-8.1025085 -5.9478817 -8.7470627
-8.0951071 -5.878089 -8.7195654
-8.070076 -5.8021441 -8.7094727
-9.5168009 -11.453941 -8.7506475
-8.0802307 -5.9544468 -8.8053665
-8.0420237 -5.9071088 -8.7921181
-7.9927588 -5.8249049 -8.7811089
-10.046082 -13.648095 -8.8451929
-9.5734262 -11.531063 -8.8155775
-7.9926805 -5.93016 -8.8771276
-7.9432774 -5.8197665 -8.8470812
-7.9611788 -5.7614775 -8.9008541
-10.247911 -14.310737 -8.9139299
-10.203382 -14.230233 -8.9103756
-10.17869 -14.143922 -8.9104977
-10.173447 -14.046212 -8.9307117
-10.132579 -13.937529 -8.9049892
-10.100433 -13.844683 -8.9030972
-10.071191 -13.750679 -8.9051666
-10.041526 -13.654853 -8.894433
-10.031491 -13.55674 -8.9102879
-10.003736 -13.471727 -8.9344006
-10.011802 -13.378147 -8.9552584
-9.4089308 -11.162324 -8.97439
-9.293417 -10.842197 -8.9649782
-9.3093739 -10.796408 -8.9775486
-7.9757304 -5.9393482 -8.9620867
-7.9395981 -5.7323861 -9.0018187
-10.304807 -14.612267 -9.0193653
-10.287208 -14.530912 -8.9974823
-10.271031 -14.421622 -8.9876585
-10.181482 -14.321464 -8.9553242
-10.135565 -14.123414 -8.9377098
-10.144697 -14.048545 -8.9681654
-10.089112 -13.961044 -8.9446325
-10.05185 -13.827439 -8.9479952
-10.03022 -13.75965 -8.9563103
-10.00457 -13.671233 -8.9609385
-9.9784117 -13.572997 -8.9604073
-9.973752 -13.458084 -8.9890165
-9.9565725 -13.380489 -8.9978123
-9.8874865 -13.292583 -8.9983091
-9.8601227 -13.216474 -9.0151072
-9.3296022 -10.90024 -8.9961061
-9.3157749 -10.849419 -8.9965448
-9.2753887 -10.759057 -8.9951029
-9.2476683 -10.669116 -9.0443039
-9.203352 -10.538243 -9.0158739
-9.1738596 -10.469036 -9.0061274
-9.1574268 -10.373785 -9.0273952
-9.1320114 -10.282076 -9.0514126
-9.0922661 -10.174592 -9.0701866
-9.0517817 -10.083467 -9.0569048
-9.010251 -9.9982548 -9.0480766
-9.0160027 -9.8508091 -9.0732546
-9.0104723 -9.8304806 -9.0734301
-8.9763384 -9.7197666 -9.0841131
-8.9092598 -9.603282 -9.0695772
-8.8588839 -9.5481863 -9.0545092
-7.9614124 -5.989459 -9.1163216
-7.9335213 -5.9536586 -9.0761824
-7.8329282 -5.7334051 -9.0584612
-7.8122478 -5.7013268 -9.0877237
-7.0320778 -2.8338518 -9.1124821
-7.0265837 -2.8136582 -9.1126566
-10.346829 -14.90435 -9.1366158
-10.330236 -14.843365 -9.1371422
-10.242919 -14.742517 -9.0805168
-10.249238 -14.652003 -9.0569267
-9.9078779 -13.452518 -9.0530071
-9.8893452 -13.387074 -9.0680017
-9.8646097 -13.301156 -9.0593748
-9.8397503 -13.193576 -9.0496063
-9.8083553 -13.096492 -9.0625219
-9.7771196 -13.040258 -9.101655
-9.0729198 -10.178496 -9.0906868
-9.0229998 -10.1064 -9.0779333
-8.970665 -9.9966812 -9.0754833
-8.9733353 -9.9071684 -9.088686
-8.9522915 -9.8112259 -9.0938759
-8.9167585 -9.7139034 -9.1186037
-8.8855543 -9.628356 -9.1016617
-8.8686171 -9.5113506 -9.1004801
-8.8549461 -9.4233789 -9.131443
-8.7945604 -9.3355389 -9.1564932
-8.8021908 -9.2412252 -9.1745577
-8.7757969 -9.1216755 -9.1809864
-8.7529202 -9.0329142 -9.1786652
-8.7235012 -8.937891 -9.1881313
-8.7008944 -8.8384199 -9.1781826
-8.6783838 -8.7425804 -9.1703634
-8.6405373 -8.6329613 -9.1907644
-8.6211796 -8.5618105 -9.1913786
-8.5889416 -8.4285803 -9.1828022
-8.5700569 -8.3518009 -9.1786013
-8.547823 -8.2804003 -9.1860275
-8.487669 -8.058465 -9.1873875
-8.3458052 -7.6792545 -9.1831341
-8.3037443 -7.6395869 -9.1579485
-8.3229828 -7.4584341 -9.1960421
-8.3062954 -7.3985744 -9.1975317
-8.2865582 -7.3319273 -9.2019978
-8.0929756 -6.6204247 -9.2081404
-8.0349007 -6.4069738 -9.2099838
-7.9959607 -6.3378949 -9.2015142
-7.9878879 -6.23418 -9.2114754
-7.9650702 -6.1372108 -9.2036667
-7.915823 -6.0276546 -9.1770706
-7.8952394 -5.977982 -9.1172943
-7.8103652 -5.7236948 -9.1068544
-7.8139358 -5.6729798 -9.1665306
-7.7807589 -5.5510354 -9.1952248
-7.7891159 -5.4839492 -9.2049847
-7.7535338 -5.3617678 -9.2117128
-7.7288823 -5.2674756 -9.2100954
-7.703424 -5.1827512 -9.2166634
-7.6649604 -5.0809903 -9.2068214
-7.6467657 -4.9933276 -9.2036924
-7.6296749 -4.8782783 -9.1972446
-7.606142 -4.7898149 -9.1967106
-7.5808496 -4.7031207 -9.2015934
-7.5475068 -4.6045251 -9.2182512
-7.5143876 -4.4889393 -9.2233019
-7.4777112 -4.4015813 -9.1990528
-7.4434075 -4.3173003 -9.1788111
-7.4414759 -4.2060761 -9.1920748
-7.4201684 -4.1056561 -9.2022095
-7.3924432 -4.0161681 -9.2111721
-7.0927253 -3.030432 -9.2285614
-7.0614009 -2.9584928 -9.2238932
-7.0535698 -2.8544161 -9.1953812
-7.0302806 -2.813518 -9.1542788
-10.339403 -14.906539 -9.1560507
-10.245828 -14.846107 -9.1626329
-10.209122 -14.745208 -9.1642313
-10.185263 -14.686801 -9.1840591
-8.7459469 -9.3088102 -9.1725225
-8.7460556 -9.2385454 -9.1888781
-8.7306376 -9.1440659 -9.2090607
-8.6970539 -9.0491753 -9.1944256
-8.6680651 -8.9590282 -9.1915474
-8.6467505 -8.8635979 -9.199192
-8.6224422 -8.7543716 -9.1978741
-8.5848227 -8.6592503 -9.2344007
-8.5471029 -8.5734892 -9.2127724
-8.5236206 -8.4801598 -9.2110739
-8.4956427 -8.3792009 -9.2214899
-8.4834871 -8.2733669 -9.2361088
-8.4511709 -8.1889858 -9.2291307
-8.4213028 -8.0962353 -9.2142887
-8.39538 -7.9957356 -9.2327938
-8.3799486 -7.898736 -9.2559299
-8.3427019 -7.7872281 -9.2333288
-8.3109331 -7.7105145 -9.2120438
-8.2794123 -7.6013675 -9.219717
-8.2640734 -7.5049047 -9.2388573
-8.2313185 -7.4079356 -9.2180014
-8.2151194 -7.3161426 -9.2352343
-8.1940289 -7.2257648 -9.2325153
-8.162344 -7.1240067 -9.2398129
-8.1669302 -7.0128489 -9.2843351
-8.1357403 -6.9290862 -9.2685728
-8.1122732 -6.8254504 -9.2755432
-8.0742731 -6.7244511 -9.277173
-8.0375309 -6.6387897 -9.2532015
-8.0206289 -6.5391545 -9.2607651
-7.9935741 -6.4413857 -9.257534
-7.9408894 -6.3580317 -9.2395849
-7.9391003 -6.2521782 -9.2570505
-7.9074359 -6.1561418 -9.2544012
-7.86906 -6.0600185 -9.2414398
-7.7349458 -5.6368561 -9.2332125
-7.7265215 -5.5810156 -9.235713
-7.718719 -5.4767327 -9.2536526
-7.7012916 -5.3861852 -9.2437401
-7.6777868 -5.2827096 -9.2425709
-7.636579 -5.1900883 -9.2315149
-7.6081161 -5.0942936 -9.2309208
-7.5727401 -5.0115557 -9.2518301
-7.5788889 -4.8997707 -9.2642355
-7.534584 -4.8037367 -9.2374172
-7.510221 -4.7066884 -9.2400618
-7.4903927 -4.6063857 -9.2650633
-7.4656324 -4.5095696 -9.2699604
-7.4320941 -4.4352818 -9.2302694
-7.4688506 -4.3559685 -9.2471457
-7.3914485 -4.210743 -9.2389326
-7.3614326 -4.1300483 -9.2632332
-7.3347979 -4.0319948 -9.2731438
-7.3196669 -3.9440892 -9.2900496
-7.2883453 -3.8436606 -9.317503
-7.2655544 -3.7168629 -9.3239937
-7.2455859 -3.6406639 -9.3227987
-7.2064104 -3.5498888 -9.3152561
-7.1985769 -3.4657779 -9.3229189
-7.1543221 -3.3394372 -9.3167849
-7.1241231 -3.2619836 -9.3111515
-7.1020889 -3.1637595 -9.2926626
-7.0828772 -3.0752776 -9.2591238
-7.0337009 -2.9723701 -9.232543
-7.0043001 -2.9074745 -9.2277927
-10.212219 -14.870806 -9.238512
-10.189738 -14.761826 -9.2220612
-8.5327797 -8.6790791 -9.2794104
-8.450839 -8.3705864 -9.2772427
-8.4398508 -8.3301983 -9.2775927
-8.2365665 -7.5830398 -9.2840443
-8.2200594 -7.5370073 -9.2941036
-8.165143 -7.3205252 -9.2863092
-8.1514072 -7.2700405 -9.286746
-8.1047068 -7.0983958 -9.288228
-8.099309 -7.0324483 -9.322875
-8.0597429 -6.9376869 -9.3190613
-8.0372562 -6.8467445 -9.3199434
-8.0119085 -6.7621989 -9.2943516
-7.9790096 -6.6473808 -9.2993689
-7.9566126 -6.5624466 -9.298377
-7.9264345 -6.452929 -9.3002424
-7.914217 -6.4129033 -9.3038082
-7.8684583 -6.2300758 -9.2957258
-7.8629642 -6.2098823 -9.2958994
-7.8354936 -6.1089149 -9.296772
-7.6926455 -5.5838842 -9.3013048
-7.5305676 -4.9881763 -9.306448
-7.5158906 -4.9488754 -9.3164492
-7.431673 -4.6246934 -9.3095865
-7.2805839 -4.0693727 -9.3143816
-7.2279758 -3.8340068 -9.3562679
-7.231513 -3.7453482 -9.3671761
-7.1871905 -3.6534941 -9.3581972
-7.1435962 -3.5706379 -9.349472
-7.1429353 -3.4583182 -9.3516455
-7.1244874 -3.3666692 -9.3367014
-7.0663118 -3.2818263 -9.3211813
-7.0415883 -3.1909561 -9.3219662
-12.736891 -11.528253 -1.344497
-12.692193 -11.453006 -1.4038956
-12.46489 -11.122106 -1.7396619
-12.452484 -11.09629 -1.7529398
-12.442464 -11.128714 -1.7983533
-12.42286 -11.081779 -1.815328
-12.405087 -11.139728 -1.896173
-12.397211 -11.103365 -1.8915906
-12.371447 -11.149641 -1.9842104
-12.352088 -11.111136 -2.006083
-12.319352 -11.032365 -2.0341802
-12.337808 -11.159554 -2.0722475
-12.314791 -11.102785 -2.0910969
-12.30134 -11.051488 -2.0903158
-12.109376 -10.409 -2.1374767
-12.097712 -10.341023 -2.1214938
-12.079959 -10.247464 -2.1036224
-12.048132 -10.183899 -2.1394203
-12.287465 -11.108074 -2.1608152
-12.112958 -10.496363 -2.1856797
-12.103917 -10.444994 -2.174156
-12.073576 -10.348324 -2.1847811
-12.05022 -10.256503 -2.1816301
-12.031335 -10.175586 -2.1747413
-12.260346 -11.127117 -2.2389824
-12.043525 -10.325252 -2.2426419
-12.023442 -10.282354 -2.263411
-11.97982 -10.259289 -2.3541813
-12.186409 -11.215219 -2.4756646
-12.186468 -11.182045 -2.4539199
-12.126021 -11.034073 -2.5041549
-12.170578 -11.265672 -2.5469165
-12.118546 -11.036276 -2.5237188
-12.110194 -11.00558 -2.5239837
-12.148857 -11.325754 -2.6387167
-12.140505 -11.295058 -2.6389813
-12.128715 -11.44958 -2.7681999
-12.129454 -11.383048 -2.7230814
-12.436003 -12.677931 -2.822871
-12.123035 -11.563249 -2.8559947
-12.118902 -11.497602 -2.8232703
-12.336466 -12.453059 -2.9178309
-12.304203 -12.363096 -2.9374919
-12.117632 -11.662101 -2.9334726
-12.121272 -11.610188 -2.8908384
-12.347327 -12.648799 -3.0189509
-12.322448 -12.563292 -3.0236061
-12.299272 -12.46623 -3.0166109
-12.274931 -12.360019 -3.006469
-12.256415 -12.299812 -3.0121729
-12.229211 -12.155308 -2.9840465
-12.200314 -12.081364 -3.00597
-12.163941 -11.979342 -3.0277436
-12.143755 -11.88871 -3.0176806
-12.123729 -11.80539 -3.011991
-12.08925 -11.687517 -3.0188589
-12.022494 -11.484565 -3.0485864
-12.004863 -11.419762 -3.0491459
-11.866599 -10.911577 -3.0535336
-11.849895 -10.850186 -3.0540638
-11.795146 -10.648958 -3.0558012
-11.763597 -10.532997 -3.0568023
-11.75063 -10.470504 -3.0475504
-12.321086 -12.700741 -3.1164172
-12.258965 -12.44274 -3.099062
-12.242261 -12.381349 -3.0995915
-12.219257 -12.290867 -3.0964563
-12.189264 -12.204826 -3.1131668
-12.167255 -12.090831 -3.0923088
-12.143592 -11.994583 -3.0870199
-12.109003 -11.89453 -3.1057532
-12.083812 -11.806787 -3.1097062
-12.049964 -11.721197 -3.1360657
-12.031843 -11.611672 -3.1086855
-12.009982 -11.526061 -3.1059456
-11.981331 -11.41638 -3.1040068
-11.946479 -11.31118 -3.1200223
-11.928563 -11.258042 -3.1288736
-11.894817 -11.12845 -3.1263204
-11.871441 -11.039618 -3.1251643
-11.844172 -10.918186 -3.1122251
-11.821431 -10.861588 -3.1305161
-11.770164 -10.64053 -3.1108923
-11.743952 -10.549837 -3.1154053
-11.725227 -10.469147 -3.1082687
-11.683312 -10.360871 -3.1394179
-11.659407 -10.298445 -3.1567419
-11.586227 -9.9552851 -3.1107476
-11.487761 -9.6527328 -3.1525257
-11.475672 -9.6231394 -3.1625726
-12.286059 -12.665274 -3.1782703
-12.261833 -12.581889 -3.1827197
-12.238944 -12.49776 -3.1834459
-12.171479 -12.26958 -3.1984715
-12.167342 -12.232116 -3.1841075
-12.058372 -11.794507 -3.1634076
-12.033001 -11.706198 -3.1674337
-12.003571 -11.622766 -3.1844723
-11.970642 -11.494318 -3.1806865
-11.950677 -11.428361 -3.1861513
-11.922838 -11.326041 -3.1870346
-11.906137 -11.26465 -3.1875653
-11.87238 -11.128708 -3.1809061
-11.85209 -11.062294 -3.1868646
-11.735446 -10.607605 -3.1736555
-11.729878 -10.587141 -3.1738322
-11.665644 -10.362921 -3.1836011
-11.651931 -10.300648 -3.1763058
-11.476548 -9.6560373 -3.1818714
-11.468196 -9.6253424 -3.1821365
-9.0837612 -3.6413674 -5.0680676
-9.0395126 -3.4886236 -5.0759139
-9.0361958 -3.4269707 -5.043808
-9.6628609 -5.9132662 -5.1431022
-9.6580868 -5.8660431 -5.1239266
-9.0566311 -3.6354268 -5.1299891
-9.0282202 -3.53616 -5.1342521
-9.0087328 -3.464536 -5.1348701
-9.7879009 -6.5063977 -5.2261043
-9.7711983 -6.4450064 -5.2266345
-9.7489271 -6.3631511 -5.2273412
-9.6904659 -6.1482806 -5.2291961
-9.668273 -6.0221944 -5.2009106
-9.6590195 -5.9733438 -5.1915407
-9.6298714 -5.8721476 -5.196331
-11.640759 -13.464878 -5.263938
-11.635191 -13.444414 -5.2641149
-11.548892 -13.127225 -5.2668533
-9.8117685 -6.7425146 -5.32198
-9.798563 -6.6395674 -5.2869668
-9.7847567 -6.5499549 -5.2620969
-9.7637224 -6.4472089 -5.2461982
-9.7352486 -6.3524456 -5.2535439
-9.6941462 -6.245285 -5.2834349
-9.670064 -6.1571755 -5.284462
-9.6580801 -6.0826693 -5.2650118
-11.633284 -13.46708 -5.2835016
-11.609137 -13.390199 -5.2919989
-11.584765 -13.307305 -5.2971206
-11.563687 -13.211283 -5.2857103
-11.527419 -13.122499 -5.3158512
-11.488367 -13.023485 -5.3460808
-11.469635 -12.921246 -5.3249331
-11.44295 -12.826876 -5.3281951
-11.419981 -12.729262 -5.3203344
-11.388802 -12.637752 -5.3363557
-11.36312 -12.548306 -5.3403916
-11.332949 -12.444831 -5.3461814
-11.305348 -12.33968 -5.3446412
-11.281834 -12.239273 -5.3362808
-11.254906 -12.159472 -5.3496242
-11.231209 -12.069827 -5.3487201
-10.966911 -11.07722 -5.3433022
-10.936348 -11.007281 -5.371882
-10.904634 -10.907683 -5.3839316
-10.876797 -10.805364 -5.3848152
-10.851742 -10.713277 -5.3856101
-10.698629 -10.150522 -5.3904691
-9.8301067 -6.9360499 -5.4035363
-9.8221903 -6.8352289 -5.3570814
-9.812644 -6.7754121 -5.3412786
-9.6623163 -6.2228894 -5.3460493
-9.6466646 -6.2009764 -5.3697376
-10.912909 -10.98261 -5.4126592
-10.890636 -10.900755 -5.4133654
-10.865583 -10.808667 -5.4141612
-10.840528 -10.71658 -5.4149556
-10.80895 -10.615363 -5.425621
-10.783896 -10.523275 -5.4264159
-10.760322 -10.439594 -5.4290972
-10.730497 -10.327009 -5.4281106
-10.699427 -10.227652 -5.4387598
-10.677729 -10.138996 -5.433651
-10.650723 -10.041223 -5.4354739
-10.622633 -9.9491081 -5.4436135
-10.587068 -9.8591967 -5.4713163
-10.552682 -9.7624912 -5.491734
-10.526408 -9.6560278 -5.4861255
-10.505752 -9.5405388 -5.4610114
-10.485857 -9.4641228 -5.4594955
-10.460123 -9.3753071 -5.4640703
-10.428121 -9.263588 -5.4689264
-10.414559 -9.1732149 -5.4429684
-10.390357 -9.0859776 -5.4448514
-10.354729 -8.9776945 -5.4607425
-10.329926 -8.87362 -5.4531212
-10.306904 -8.7849531 -5.4512162
-10.279741 -8.69625 -5.4593263
-10.247409 -8.5910177 -5.4692097
-10.224836 -8.5040941 -5.4673495
-10.198833 -8.4047079 -5.4656897
-10.175637 -8.3090897 -5.4596772
-10.138416 -8.2027817 -5.480722
-10.12036 -8.1141586 -5.4668002
-10.095093 -8.0101614 -5.4603548
-10.063065 -7.9205246 -5.4796629
-10.03269 -7.8334785 -5.4966397
-10.015388 -7.734931 -5.4744263
-9.9938936 -7.6246023 -5.4547081
-9.9682293 -7.5253267 -5.4523015
-9.9387779 -7.4297986 -5.4615197
-9.9143877 -7.3382325 -5.4610372
-9.8940182 -7.2377319 -5.4449925
-9.8652267 -7.1467462 -5.4555702
-9.8431616 -7.0537777 -5.4485397
-9.5884914 -6.1720152 -5.491962
-9.5710144 -6.0950623 -5.4842334
-9.5348244 -5.9620476 -5.4853816
-9.5196848 -5.8965111 -5.4794197
-9.4977579 -5.796134 -5.4672313
-9.466877 -5.6974745 -5.4778748
-9.4448652 -5.601728 -5.4689102
-9.4115839 -5.5255728 -5.50003
-9.3601284 -5.2803936 -5.465157
-9.3483839 -5.2322779 -5.4623084
-9.1608343 -4.6023054 -5.5069137
-9.1502695 -4.5545774 -5.5014501
-8.918561 -3.7563615 -5.543592
-8.9032879 -3.6779695 -5.5295811
-8.878233 -3.5858819 -5.5303764
-8.8515682 -3.4804547 -5.5263915
-8.8266945 -3.4187086 -5.5465069
-8.7877197 -3.2754619 -5.5477438
-8.7738008 -3.2243025 -5.5481858
-8.6868916 -2.8999248 -5.5477228
-8.6641855 -2.8129349 -5.5461431
-8.6290407 -2.6922426 -5.5527797
-8.6095533 -2.6206195 -5.5533981
-8.5761471 -2.4978366 -5.5544581
-8.5566607 -2.4262133 -5.5550766
-10.567477 -9.84655 -5.5105915
-10.542422 -9.7544622 -5.5113864
-10.522936 -9.6828394 -5.5120049
-8.9110851 -3.7585645 -5.5631561
-8.8897429 -3.6801198 -5.5638332
-8.8721113 -3.6153176 -5.5643926
-8.8247862 -3.4413753 -5.5658946
-8.8048029 -3.3864763 -5.5786076
-8.782074 -3.2992291 -5.5769129
-8.7497501 -3.1982322 -5.5895343
-8.7205744 -3.1012192 -5.5971179
-8.7013426 -3.0025043 -5.5794754
-8.6762867 -2.9104164 -5.5802698
-8.6521873 -2.8069971 -5.571372
-8.623395 -2.7160108 -5.5819488
-8.5999928 -2.6283486 -5.5816174
-8.5742397 -2.5205038 -5.5738454
-8.5418806 -2.4100428 -5.5803947
-8.5129013 -2.348479 -5.61058
-8.7135706 -4.5462132 -6.5550828
-8.7046337 -4.4935861 -6.5424819
-9.1912813 -6.405899 -6.6075659
-9.1651917 -6.2951698 -6.5987301
-9.1428947 -6.2156906 -6.601048
-9.1189547 -6.1103811 -6.5905347
-9.0795145 -6.0188489 -6.6265736
-9.0529661 -5.9272022 -6.6312819
-9.0241737 -5.836216 -6.6418591
-8.9989195 -5.7248464 -6.6305814
-8.9790735 -5.6358299 -6.6207428
-8.9453106 -5.53894 -6.6395302
-8.9211712 -5.4576354 -6.6451278
-8.891264 -5.3365841 -6.6388297
-8.8753643 -5.2464046 -6.6186652
-8.850029 -5.1707163 -6.6308203
-8.8165102 -5.0482287 -6.6323433
-8.8063278 -4.9846535 -6.6156416
-8.758832 -4.8312869 -6.6309528
-8.7416506 -4.7755613 -6.6363292
-8.7217636 -4.6653728 -6.612802
-8.6995201 -4.5687737 -6.6038446
-8.694005 -4.5188222 -6.5846939
-8.8258324 -5.1467938 -6.6739225
-8.8097391 -5.0925908 -6.6776543
-8.7438812 -4.8356919 -6.6700807
-8.7243938 -4.7640686 -6.6706991
-9.7544413 -11.191351 -8.3580828
-9.7518997 -11.308148 -8.4403019
-9.7412043 -11.235616 -8.4190025
-9.7161875 -11.169467 -8.4366035
-9.7605219 -11.451129 -8.5125027
-9.7369967 -11.33796 -8.4958553
-9.7108898 -11.236337 -8.4929934
-9.6934433 -11.179853 -8.4985266
-9.747056 -11.495622 -8.574131
-9.6680756 -11.230063 -8.5927439
-9.6703806 -11.194016 -8.5636797
-8.1901312 -5.8498878 -8.6734657
-8.1799879 -5.7755113 -8.6496305
-9.6541443 -11.29164 -8.6666269
-8.1732836 -5.8695884 -8.727149
-9.6396513 -11.407539 -8.7772484
-8.1430779 -5.9455395 -8.8498659
-10.189166 -13.596421 -8.8699722
-9.6194458 -11.478701 -8.8725901
-8.1213036 -5.9530616 -8.9075708
-8.1031437 -5.9234142 -8.9323053
-8.0465393 -5.7153659 -8.9341011
-10.432942 -14.649705 -8.9646664
-10.418537 -14.584622 -8.9572182
-10.393215 -14.499647 -8.9632912
-10.368237 -14.400754 -8.9594727
-10.355205 -14.302977 -8.9274073
-10.322343 -14.209812 -8.946434
-10.286145 -14.107194 -8.967392
-10.269972 -13.995408 -8.9338207
-10.252367 -13.904391 -8.9172487
-10.22158 -13.811845 -8.9316473
-10.199538 -13.717642 -8.9237566
-10.173882 -13.613451 -8.918129
-10.142879 -13.525384 -8.9359608
-10.102449 -13.441349 -8.9792967
-9.5188847 -11.304972 -9.0033369
-9.4854784 -11.182189 -9.0043974
-9.4701176 -11.117245 -8.9993629
-9.393733 -10.8234 -8.9932528
-9.3701239 -10.722975 -8.9851074
-9.3401899 -10.62308 -8.9926538
-9.3155613 -10.540706 -8.9987459
-9.2911863 -10.440523 -8.9926157
-9.2642002 -10.346637 -8.9969244
-9.2421694 -10.261948 -8.9952078
-8.0732679 -5.9174814 -9.0008965
-8.012023 -5.6923795 -9.00284
-10.4104 -14.673429 -9.0347815
-10.40097 -14.596497 -9.007555
-10.376232 -14.500631 -9.0051193
-10.355442 -14.427182 -9.0077124
-9.4557333 -11.102536 -9.0246677
-9.4000559 -10.897899 -9.0264349
-9.3944883 -10.877435 -9.0266113
-9.3482676 -10.724043 -9.0388155
-9.3201981 -10.634071 -9.048295
-9.2977533 -10.545637 -9.0451422
-9.2738276 -10.448796 -9.0401039
-9.2459888 -10.346477 -9.040987
-9.2137775 -10.252815 -9.058116
-9.1796694 -10.174447 -9.089797
-9.1541882 -10.077329 -9.0883522
-9.1232195 -9.9586496 -9.0861712
-9.1015005 -9.871809 -9.0822926
-9.0742674 -9.7849541 -9.0917797
-9.0373631 -9.6637697 -9.1023664
-9.0190163 -9.5930386 -9.1008024
-8.9859819 -9.4947071 -9.1168814
-8.960927 -9.4026194 -9.1176767
-8.9331665 -9.2560682 -9.0895681
-8.8829794 -9.1161261 -9.1201506
-8.7966805 -8.7989368 -9.1228886
-8.7730169 -8.7119656 -9.1236401
-8.0283365 -5.9749303 -9.1472721
-8.0299253 -5.921411 -9.1085682
-7.9653397 -5.684031 -9.1106186
-7.9462523 -5.6509724 -9.1353827
-7.9058475 -5.5247264 -9.1511593
-7.8529544 -5.3303204 -9.1528378
-7.8362513 -5.2689285 -9.153368
-7.797277 -5.1256819 -9.1546049
-7.7534862 -4.9482412 -9.145257
-7.7323718 -4.8574495 -9.1373367
-7.7047343 -4.7744126 -9.1502934
-7.6373777 -4.5280867 -9.1532364
-7.6275082 -4.4749966 -9.1425982
-7.6027517 -4.3909264 -9.147893
-7.56915 -4.2787271 -9.1563225
-7.541163 -4.1843467 -9.1627321
-7.5133243 -4.0820274 -9.1636152
-7.4994049 -4.0308681 -9.1640577
-7.1750178 -2.7891355 -9.1421404
-7.1558218 -2.7284784 -9.1491909
-10.396259 -14.796824 -9.1494341
-10.388138 -14.711853 -9.1138
-9.1678076 -10.192678 -9.1304379
-9.0954275 -9.9266491 -9.1327353
-9.0842924 -9.8857212 -9.1330881
-9.0443392 -9.7685518 -9.1536837
-9.0216169 -9.6776199 -9.1495724
-9.003561 -9.5889959 -9.1356506
-8.9785061 -9.4969091 -9.136445
-8.9398212 -9.3817101 -9.155242
-8.9096346 -9.2998419 -9.1751366
-8.8843431 -9.2027607 -9.173255
-8.8597937 -9.1147881 -9.1755037
-8.8317947 -9.0107965 -9.1756849
-8.801136 -8.919198 -9.1903906
-8.7831068 -8.8281984 -9.1748562
-8.7585249 -8.7201824 -9.1641331
-8.7169285 -8.6266546 -9.2041063
-8.6916132 -8.5314865 -9.2035294
-8.668992 -8.4437828 -9.2012739
-8.6454811 -8.3433771 -9.192915
-8.6152964 -8.2472754 -9.203536
-8.5811357 -8.1551094 -9.2263622
-8.5592098 -8.0547323 -9.2141743
-8.5288792 -7.9531469 -9.2215786
-8.4669981 -7.7356009 -9.2299843
-8.4512482 -7.6628761 -9.2208214
-8.4260588 -7.5724077 -9.2230015
-8.4011383 -7.4787016 -9.2224112
-8.3721476 -7.368433 -9.2209158
-8.3454618 -7.2740636 -9.2241783
-8.3166704 -7.1830778 -9.2347555
-8.2943993 -7.1012225 -9.2354622
-8.2164516 -6.8147292 -9.2379351
-8.1839733 -6.6953568 -9.238966
-8.1573801 -6.5926704 -9.2365885
-8.1365385 -6.5082893 -9.2321892
-8.1101789 -6.407639 -9.2305708
-8.086585 -6.3098583 -9.2241096
-8.0624628 -6.2190752 -9.2234945
-8.0406685 -6.1315532 -9.2193556
-8.0126314 -6.0099521 -9.2081661
-8.0003424 -5.9610748 -9.2061405
-7.9080381 -5.6069722 -9.1994066
-7.8862028 -5.5415664 -9.2097616
-7.8551846 -5.4423952 -9.2204103
-7.8334012 -5.3460808 -9.2105169
-7.8092093 -5.2437396 -9.2025423
-7.7814589 -5.149991 -9.2087908
-7.7540812 -5.0622067 -9.2180233
-7.7333684 -4.9538622 -9.1977015
-7.7117167 -4.8705688 -9.1959724
-7.688621 -4.7748899 -9.1896772
-7.657773 -4.6677384 -9.1947107
-7.6210208 -4.5636058 -9.2160301
-7.5966821 -4.477448 -9.2189493
-7.5777431 -4.3896985 -9.2077389
-7.555243 -4.2769046 -9.188859
-7.5299497 -4.1876502 -9.1920776
-7.5033684 -4.0940027 -9.1955566
-7.4731822 -3.9892845 -9.2005692
-7.4373817 -3.8933597 -9.224925
-7.3896475 -3.7758524 -9.2641735
-7.3840799 -3.7553887 -9.2643499
-7.2958622 -3.4080637 -9.2521181
-7.2857695 -3.3643727 -9.2481432
-7.2114811 -3.1210101 -9.2698278
-7.192709 -3.0408862 -9.2631769
-7.1651082 -2.935734 -9.2616358
-7.1506071 -2.8358004 -9.2317247
-7.1383801 -2.7336178 -9.1948404
-8.6998415 -8.6329527 -9.2496529
-8.6683111 -8.5051956 -9.2429228
-8.657176 -8.4642687 -9.2432756
-8.5903635 -8.2187023 -9.2453957
-8.5691395 -8.1491699 -9.2515926
-8.5532198 -8.0970211 -9.2562389
-8.513463 -7.9445319 -9.2533588
-8.4799662 -7.8558102 -9.2768164
-8.4647455 -7.7767882 -9.2622681
-8.4483871 -7.6968751 -9.2499018
-8.4094133 -7.5536284 -9.2511387
-8.3913908 -7.4992576 -9.2594414
-8.328681 -7.2569032 -9.2537003
-8.3091946 -7.1852798 -9.2543192
-8.2792492 -7.0863457 -9.2625179
-8.2432146 -6.9967394 -9.2915516
-8.2275095 -6.899888 -9.2665749
-8.2024536 -6.8078008 -9.2673693
-8.1719646 -6.7081051 -9.2763891
-8.1528225 -6.61796 -9.2641134
-8.1245213 -6.5124607 -9.2640448
-8.104105 -6.4389019 -9.2656593
-7.8665619 -5.5584064 -9.2683659
-7.4033661 -3.8823321 -9.3002443
-7.377048 -3.8079841 -9.3156509
-7.3521466 -3.7233515 -9.3209276
-7.3219156 -3.6278164 -9.3320332
-7.2904439 -3.5056691 -9.3288155
-7.2743282 -3.4198463 -9.3120079
-7.2474709 -3.33535 -9.3221169
-7.2232165 -3.2280738 -9.3110819
-7.2036619 -3.1417346 -9.3022871
-7.1845183 -3.051589 -9.2900095
-7.1650314 -2.9799654 -9.2906284
-7.3606219 -3.8175621 -9.3617277
-7.3343205 -3.725842 -9.3657837
-7.3021607 -3.6026919 -9.3635826
-7.2492676 -3.4082861 -9.365262
-7.2348714 -3.3627927 -9.3705502
-11.825008 -8.0323315 -1.4821582
-12.519101 -11.076369 -1.7811269
-12.47403 -11.04515 -1.8701016
-12.465624 -11.014251 -1.8703684
-12.456813 -11.067417 -1.9263586
-12.443048 -11.020904 -1.9294477
-12.427708 -11.072397 -2.0001857
-12.393781 -11.00081 -2.0358481
-12.164354 -10.190758 -2.0647449
-12.15875 -10.170159 -2.0649228
-12.362118 -11.067001 -2.1557405
-12.369044 -11.016415 -2.1060004
-12.149304 -10.195192 -2.104131
-12.131271 -10.158787 -2.1241579
-12.348729 -11.099266 -2.2092226
-12.348988 -11.04862 -2.1756115
-12.181978 -10.504488 -2.2263048
-12.159727 -10.430332 -2.2319686
-12.132467 -10.360357 -2.2525179
-12.318764 -11.128728 -2.3010781
-12.151558 -10.51716 -2.3083298
-12.13105 -10.447945 -2.3129852
-12.100515 -10.338901 -2.3160281
-12.083344 -10.281381 -2.3202219
-12.28583 -11.145108 -2.391613
-12.111241 -10.455614 -2.3660264
-12.075373 -10.323781 -2.3671646
-12.057673 -10.266695 -2.3729141
-12.247648 -11.206423 -2.5241413
-12.263256 -11.15176 -2.4506924
-12.211699 -11.066825 -2.5204184
-12.228881 -11.223872 -2.5810146
-12.186002 -11.06698 -2.5828393
-12.204664 -11.324779 -2.7054574
-12.205293 -11.264023 -2.6643674
-12.196022 -11.427452 -2.7932763
-12.194936 -11.365067 -2.7552867
-12.188732 -11.296098 -2.7254174
-12.188307 -11.537799 -2.8838444
-12.182436 -11.473933 -2.8564918
-12.413245 -12.464841 -2.9420171
-12.376738 -12.375471 -2.972357
-12.185704 -11.643461 -2.9589651
-12.17987 -11.600679 -2.9452543
-12.42614 -12.616795 -3.0096979
-12.406764 -12.541846 -3.0078812
-12.370784 -12.446201 -3.0328546
-12.372015 -12.387988 -2.9919612
-12.293794 -12.140324 -3.0203824
-12.296354 -12.109901 -2.9943624
-12.165806 -11.655683 -3.0151803
-12.136272 -11.578562 -3.0365829
-12.11125 -11.519183 -3.0585995
-12.088833 -11.436788 -3.0593109
-12.052697 -11.313932 -3.0669422
-11.992985 -11.105844 -3.0762486
-11.972019 -11.037325 -3.0824721
-11.933748 -10.881724 -3.0739596
-11.915093 -10.798219 -3.0648246
-11.890461 -10.727601 -3.0785756
-11.804846 -10.407947 -3.0780499
-11.785893 -10.340423 -3.0800412
-11.762812 -10.253455 -3.0793841
-11.696486 -10.012669 -3.0834341
-11.67749 -9.9448395 -3.0853341
-11.652564 -9.863183 -3.0926099
-12.312697 -12.438843 -3.1689324
-12.295632 -12.367584 -3.1639156
-12.276861 -12.289199 -3.1583972
-12.249265 -12.157153 -3.1393321
-12.225895 -12.081396 -3.1466739
-12.196471 -11.972456 -3.1470861
-12.178933 -11.877498 -3.1277831
-12.074507 -11.563386 -3.1764913
-12.0661 -11.532488 -3.1767581
-12.028947 -11.27643 -3.1001198
-11.995207 -11.216442 -3.1428778
-11.974313 -11.123425 -3.1329806
-11.933557 -10.99101 -3.1455927
-11.916742 -10.929214 -3.1461265
-11.885276 -10.810429 -3.1450837
-11.863074 -10.730614 -3.146944
-11.82924 -10.649964 -3.1764929
-11.794924 -10.525831 -3.178879
-11.776727 -10.425968 -3.1579747
-11.761358 -10.331759 -3.1339023
-11.734869 -10.24854 -3.1439383
-11.698844 -10.141583 -3.1616623
-11.677624 -10.044927 -3.1501765
-11.649584 -9.953063 -3.1583619
-11.627687 -9.8654566 -3.1544139
-11.591393 -9.7558641 -3.1710706
-11.578001 -9.6737747 -3.1500964
-11.550087 -9.5985613 -3.1688156
-12.348269 -12.659209 -3.2261667
-12.321524 -12.571768 -3.2340896
-12.297915 -12.469157 -3.2245224
-12.277069 -12.382589 -3.2186973
-12.250917 -12.286461 -3.2195289
-12.223827 -12.1869 -3.2203872
-12.205495 -12.099591 -3.2080007
-12.17853 -11.988868 -3.2012908
-12.143566 -11.883992 -3.2177846
-12.117535 -11.793238 -3.2218149
-12.092222 -11.709339 -3.2285688
-12.058018 -11.584933 -3.230514
-12.038241 -11.514738 -3.2327628
-12.006137 -11.416655 -3.2467508
-11.978115 -11.31366 -3.2476401
-11.960417 -11.218748 -3.2287462
-11.935418 -11.134331 -3.2344034
-11.910171 -11.031075 -3.2283964
-11.893244 -10.927035 -3.2016978
-11.869892 -10.841207 -3.2024388
-11.8386 -10.726195 -3.2034318
-11.814781 -10.63865 -3.2041876
-11.789561 -10.545954 -3.204988
-11.752717 -10.434434 -3.2217209
-11.722617 -10.351122 -3.2404623
-11.71058 -10.285535 -3.226949
-11.674669 -10.123675 -3.2086341
-11.647654 -10.058527 -3.2317245
-11.632636 -9.969183 -3.2099681
-11.565382 -9.7219954 -3.2121022
-11.550437 -9.6670647 -3.2125766
-11.52327 -9.6120262 -3.2426202
-12.308701 -12.573524 -3.2663307
-12.268007 -12.475745 -3.3013418
-12.240977 -12.391836 -3.3122506
-12.218835 -12.277372 -3.2914152
-12.190314 -12.195018 -3.306947
-12.16659 -12.125889 -3.3194761
-12.073312 -11.708366 -3.2738006
-12.042487 -11.595072 -3.2747788
-12.007677 -11.502977 -3.2992287
-11.986758 -11.428909 -3.301722
-11.961529 -11.336348 -3.3026385
-11.912624 -11.132704 -3.2886269
-11.895811 -11.070907 -3.2891607
-11.627756 -10.070747 -3.28794
-11.591249 -9.9813776 -3.3182802
-12.232166 -12.471473 -3.3854852
-12.202361 -12.404604 -3.414223
-12.164591 -12.19323 -3.3681753
-12.142173 -12.110834 -3.3688867
-9.1655693 -3.6650109 -5.0877814
-9.1577311 -3.607986 -5.0696568
-9.1257257 -3.5135825 -5.0858035
-9.1044407 -3.4104567 -5.0702667
-9.0879383 -3.3318794 -5.0591183
-9.7562609 -5.9904199 -5.1695499
-9.7411757 -5.92626 -5.1643548
-9.7389126 -5.876863 -5.1376767
-9.1505203 -3.6694455 -5.1271677
-9.1269264 -3.6446111 -5.1682143
-9.06077 -3.3843863 -5.1591973
-9.0589285 -3.3626783 -5.1495285
-11.737477 -13.431611 -5.210434
-11.729071 -13.400712 -5.2107005
-9.8821011 -6.6023097 -5.2628279
-9.865901 -6.5228496 -5.2503724
-9.8470039 -6.4235229 -5.2315183
-9.8125544 -6.3097072 -5.2409492
-9.7889147 -6.228405 -5.2453327
-9.7722969 -6.1380768 -5.2268147
-9.7400837 -6.0270352 -5.2326212
-9.7195654 -5.939045 -5.2250867
-9.6924009 -5.8627548 -5.2412882
-9.0721169 -3.5256712 -5.2236853
-11.725658 -13.470324 -5.264308
-11.700848 -13.37958 -5.2653809
-11.671295 -13.287943 -5.2773814
-11.64555 -13.196639 -5.2803602
-11.624591 -13.116284 -5.2788639
-11.581278 -12.977003 -5.2932076
-11.564464 -12.915206 -5.2937412
-11.379517 -12.23544 -5.2996101
-9.8999338 -6.7973089 -5.3465638
-9.8888931 -6.7202144 -5.3231368
-9.8770323 -6.6334705 -5.295413
-9.712184 -6.1072431 -5.3525224
-9.7069511 -6.0531592 -5.3299918
-11.71293 -13.490763 -5.3084841
-11.694248 -13.422099 -5.3090773
-11.663424 -13.308805 -5.3100553
-11.591448 -13.074133 -5.3317933
-11.57328 -13.004644 -5.3306017
-11.550614 -12.90538 -5.3209305
-11.520164 -12.802175 -5.3275709
-11.500894 -12.711434 -5.3152132
-11.471066 -12.625041 -5.3312907
-11.438553 -12.522134 -5.3431306
-11.408022 -12.419878 -5.350584
-11.390736 -12.329789 -5.3338399
-11.367039 -12.227992 -5.3250194
-11.332921 -12.135138 -5.3472934
-11.306501 -12.056702 -5.3602905
-11.007676 -10.971663 -5.3784199
-10.976335 -10.879041 -5.3941135
-10.954301 -10.792082 -5.3909216
-10.926705 -10.684016 -5.3874741
-10.89791 -10.604736 -5.4056807
-10.871116 -10.516212 -5.4130163
-10.840291 -10.402918 -5.4139943
-10.816236 -10.301228 -5.4061108
-10.7948 -10.198953 -5.3914938
-10.7686 -10.112536 -5.3987603
-10.737568 -10.010428 -5.407527
-10.717632 -9.9421358 -5.4114017
-10.606999 -9.5215683 -5.4058342
-10.583677 -9.4344749 -5.4056759
-10.560707 -9.3653641 -5.4163818
-10.518993 -9.2070684 -5.414463
-10.503342 -9.1532736 -5.4173913
-10.473198 -9.0536852 -5.4256439
-10.450099 -8.9575834 -5.4190812
-10.424879 -8.8648882 -5.4198813
-10.398817 -8.7603884 -5.4150348
-10.374679 -8.6766443 -5.4190431
-10.346669 -8.5662289 -5.4150681
-10.318022 -8.4748087 -5.4250097
-10.28889 -8.366313 -5.4250078
-10.271909 -8.2866983 -5.4143457
-10.240612 -8.1988277 -5.4330249
-10.178963 -7.9722385 -5.4349813
-10.148138 -7.8589444 -5.4359593
-10.097697 -7.6735535 -5.4375601
-10.079431 -7.5978813 -5.4325814
-10.052862 -7.5087619 -5.438983
-10.031609 -7.4173698 -5.4310107
-10.003382 -7.3119621 -5.4308257
-9.9781618 -7.2192669 -5.4316263
-9.9525232 -7.1266952 -5.4335203
-9.9209042 -7.0152245 -5.4376121
-9.9059687 -6.9290338 -5.4177055
-9.8998556 -6.8418331 -5.3757482
-9.7004261 -6.1403751 -5.4026117
-9.6990538 -6.0888624 -5.3723936
-9.4419737 -5.2634726 -5.4583693
-9.4269094 -5.1995711 -5.4532886
-9.4055443 -5.1295795 -5.4595251
-10.829964 -10.394836 -5.4337759
-10.796336 -10.271242 -5.4348431
-10.779523 -10.209446 -5.4353766
-10.748698 -10.096151 -5.4363551
-10.724412 -10.006888 -5.4371257
-10.696684 -9.9149323 -5.4444904
-10.66297 -9.8270216 -5.4690051
-10.635526 -9.7329178 -5.4742765
-10.609275 -9.6477251 -5.4824677
-10.596098 -9.5551891 -5.4541674
-10.56375 -9.4163847 -5.442224
-10.537331 -9.3379498 -5.4552217
-10.516817 -9.2571554 -5.4523597
-10.502101 -9.1897955 -5.4441805
-10.456626 -9.032609 -5.4521084
-10.441066 -8.9704428 -5.4493599
-10.41243 -8.8602123 -5.4470263
-10.392814 -8.7881155 -5.447649
-10.359187 -8.6645222 -5.4487157
-10.332344 -8.5786619 -5.4579053
-10.301021 -8.4619389 -5.4578571
-10.280725 -8.3761358 -5.4512057
-10.236771 -8.2444601 -5.472055
-10.22372 -8.1815538 -5.4627423
-10.196934 -8.0880842 -5.4668345
-10.177294 -8.0045166 -5.4600468
-10.141975 -7.8885736 -5.4701996
-10.113633 -7.8068109 -5.4856896
-10.09648 -7.7122321 -5.4656992
-10.070557 -7.6036744 -5.4578753
-10.045337 -7.5109792 -5.4586759
-10.020116 -7.4182835 -5.459476
-9.9948959 -7.3255882 -5.4602766
-9.9388514 -7.1195984 -5.4620552
-9.9192352 -7.047502 -5.4626775
-9.6744804 -6.1628537 -5.4801722
-9.6370916 -6.040369 -5.4910855
-9.6202784 -5.9785724 -5.4916186
-9.5922556 -5.8755774 -5.4925079
-9.5689554 -5.7600656 -5.4737935
-9.5446568 -5.6782236 -5.4794283
-9.5297241 -5.6158729 -5.4750385
-9.4627943 -5.4520292 -5.5306616
-9.4511051 -5.4165349 -5.5358963
-9.4334879 -5.2770977 -5.4878197
-9.3998613 -5.1535039 -5.4888868
-9.383769 -5.1092954 -5.4991245
-9.3605518 -5.0538354 -5.5193157
-9.2708807 -4.7242517 -5.5221615
-9.2208862 -4.4986787 -5.4965119
-9.1989822 -4.4450574 -5.5147157
-8.9868155 -3.7399354 -5.5700846
-8.983201 -3.6569431 -5.5248055
-8.9585657 -3.5524564 -5.5165091
-8.934433 -3.4710591 -5.5220304
-8.8913956 -3.3527105 -5.5493355
-8.8696871 -3.2768486 -5.5525789
-8.8480806 -3.1817653 -5.5430603
-8.8147659 -3.090981 -5.5647368
-8.7832127 -2.9766648 -5.5668187
-8.7682009 -2.8766811 -5.5381131
-8.7464933 -2.7939065 -5.5368571
-8.708272 -2.6900225 -5.5619016
-8.6903629 -2.5831203 -5.5357203
-8.6661835 -2.5017309 -5.5413499
-8.633811 -2.397676 -5.5521054
-8.6047487 -2.3030782 -5.5609865
-8.8167601 -3.1447823 -5.5949354
-8.7999468 -3.0829849 -5.595469
-8.7803316 -3.0108891 -5.5960913
-8.5841742 -2.2899239 -5.6023164
-9.2584248 -6.2817454 -6.5666041
-9.2260256 -6.1726236 -6.5741167
-9.2036085 -6.0902276 -6.5748281
-8.9598131 -5.1941719 -6.5825648
-8.9514065 -5.1632733 -6.5828314
-8.8925591 -4.9469843 -6.5846992
-8.800086 -4.607101 -6.5876336
-8.7864208 -4.5369596 -6.5750976
-8.7774267 -4.483984 -6.5624137
-9.2800722 -6.4459538 -6.6210375
-9.2707844 -6.3819399 -6.6018777
-9.2493258 -6.2881351 -6.5928321
-9.2213039 -6.1851406 -6.5937214
-9.196084 -6.0924449 -6.5945215
-9.1612997 -5.9944763 -6.6150794
-9.1358118 -5.9089408 -6.6211944
-9.0978708 -5.80829 -6.6476631
-9.0763016 -5.7185802 -6.6415544
-9.0519304 -5.603693 -6.6258454
-9.0237885 -5.523911 -6.6421404
-8.9947081 -5.4286451 -6.6506281
-8.968441 -5.328311 -6.6489916
-8.954318 -5.2304034 -6.6194863
-8.9221964 -5.1242013 -6.6282253
-8.9011641 -5.0423512 -6.6259274
-8.8845549 -4.9549065 -6.609271
-8.8186626 -4.7351294 -6.6259527
-8.8007088 -4.6542001 -6.6167955
-8.7785501 -4.5578208 -6.6077719
-8.9670248 -5.3700514 -6.6796074
-9.8223696 -11.162713 -8.3774118
-9.8252583 -11.302783 -8.4616222
-9.7919598 -11.144126 -8.4390554
-9.8176546 -11.349524 -8.510499
-9.7556581 -11.14158 -8.5254364
-9.7219868 -11.221962 -8.6594419
-9.7272282 -11.181478 -8.6203671
-8.2615061 -5.8271523 -8.6882801
-8.2513695 -5.7645011 -8.6720657
-9.713129 -11.269073 -8.7116013
-8.2433691 -5.8769984 -8.7647276
-9.7016592 -11.376287 -8.8092365
-8.2120695 -5.9262724 -8.8727198
-8.2215147 -5.9012389 -8.8335114
-8.1617079 -5.6963573 -8.8451366
-10.564276 -14.728528 -8.9002085
-10.556348 -14.691925 -8.8955975
-10.517558 -14.564291 -8.9065552
-10.497008 -14.450352 -8.8821936
-10.470574 -14.366328 -8.8915834
-10.440881 -14.276491 -8.905098
-10.378847 -14.054466 -8.9109573
-10.359232 -13.982369 -8.9115801
-10.33376 -13.880212 -8.9068298
-10.305989 -13.786679 -8.913269
-10.285918 -13.676396 -8.8901281
-10.278046 -13.63916 -8.8849745
-9.6714544 -11.444523 -8.9269209
-8.1832247 -5.9347725 -8.9482107
-8.1087923 -5.6711578 -8.957057
-10.563639 -14.82328 -8.9634562
-10.545727 -14.759953 -8.9656439
-10.524754 -14.669824 -8.9578228
-10.502267 -14.571578 -8.9483805
-10.472121 -14.471989 -8.9566326
-10.451601 -14.381618 -8.9475565
-10.422645 -14.275189 -8.9484758
-10.394412 -14.183382 -8.9571524
-10.363063 -14.081367 -8.9667482
-10.351884 -13.99121 -8.9351578
-10.322264 -13.887573 -8.9395018
-10.294703 -13.790006 -8.9428082
-10.268868 -13.690074 -8.9403868
-10.255471 -13.645812 -8.9440536
-9.6679611 -11.471511 -8.9529715
-9.5874205 -11.29499 -9.0333443
-9.5553675 -11.167224 -9.0278759
-9.5507765 -11.105534 -8.9988413
-9.5145626 -11.027203 -9.0356569
-9.4865789 -10.901946 -9.0219536
-9.4665623 -10.79103 -8.998271
-9.447196 -10.698126 -8.9847364
-9.4176989 -10.617412 -9.0037127
-9.3845024 -10.52357 -9.0231085
-9.3663769 -10.398906 -8.9858866
-9.3409328 -10.326301 -9.0003119
-9.3104458 -10.235158 -9.0148983
-9.2760782 -10.140708 -9.0367393
-9.2468758 -10.031385 -9.0363693
-9.2259865 -9.9345522 -9.0239706
-9.20327 -9.8432398 -9.0195942
-9.1802149 -9.7684479 -9.0268126
-9.1222486 -9.5852747 -9.0481062
-9.0297747 -9.2453909 -9.0510406
-8.1417255 -5.9088564 -9.0319757
-8.0809336 -5.6534076 -9.0130615
-8.0678034 -5.635026 -9.0329323
-7.6171522 -4.0434093 -9.0893841
-10.528132 -14.862839 -9.0753231
-10.510291 -14.774102 -9.0607977
-10.496149 -14.709664 -9.0531425
-9.5602798 -11.22511 -9.0536594
-9.5116825 -11.061428 -9.064929
-9.5032759 -11.030529 -9.065196
-9.471365 -10.923912 -9.0731564
-9.2753334 -10.207678 -9.0821571
-9.254775 -10.13586 -9.0852394
-9.225462 -10.043716 -9.0963268
-9.2052755 -9.9501915 -9.0843792
-9.1810169 -9.8460884 -9.0754223
-9.1479149 -9.7531471 -9.0951786
-9.1195078 -9.6723032 -9.1114197
-9.0920029 -9.5571032 -9.1031046
-9.0622835 -9.4694424 -9.1180983
-9.038516 -9.3753061 -9.1144304
-9.0165529 -9.277895 -9.1042643
-8.9875822 -9.1799479 -9.1107416
-8.9534254 -9.0917397 -9.1361446
-8.921443 -8.9880571 -9.1461916
-8.8987923 -8.8834801 -9.1330137
-8.8749228 -8.7872076 -9.1282129
-8.8408298 -8.700305 -9.1543083
-8.8128071 -8.5973101 -9.1551971
-8.5213747 -7.5261631 -9.1644459
-8.4989567 -7.4437671 -9.1651573
-8.0982361 -5.9709401 -9.1778736
-8.0955276 -5.9072118 -9.1429424
-8.0180101 -5.616323 -9.141511
-7.9758978 -5.5063553 -9.1720295
-7.9562821 -5.4342585 -9.1726513
-7.9198527 -5.3003654 -9.1738071
-7.8976398 -5.2203813 -9.1755934
-7.8709607 -5.1256428 -9.1786022
-7.8488598 -5.0415649 -9.1774502
-7.8171082 -4.9205971 -9.1756783
-7.7663069 -4.7270479 -9.1728439
-7.7398696 -4.6488032 -9.1860037
-7.708725 -4.5393109 -9.1902351
-7.7018666 -4.4543533 -9.1515446
-7.6708245 -4.3502254 -9.1590128
-7.6462202 -4.2647657 -9.1630373
-7.6085644 -4.1599741 -9.1861181
-7.5934014 -4.0640059 -9.1603889
-7.5582275 -3.9733605 -9.1866732
-7.5391169 -3.9039752 -9.1878357
-7.2952747 -2.9997759 -9.1903858
-7.2725573 -2.9084616 -9.1860113
-7.2460623 -2.8052166 -9.1830311
-7.2240162 -2.7129757 -9.1764345
